-0.31644053 0.28490666 0.129832
-0.15372118 0.18778467 0.12988806
-0.31151205 0.2900275 0.12944493
-0.31326305 0.29545105 0.12990017
-0.15724266 0.1954793 0.1294364
-0.15724266 0.20522296 0.13215041
-0.30121315 0.34991682 0.13003457
-0.30353414 0.35313785 0.13006932
-0.29484226 0.36891544 0.12983251
-0.29341895 0.35618232 0.1304155
-0.3004643 0.36089969 0.12988806
-0.28947844 0.3887137 0.13084844
-0.28754693 0.36117727 0.13029158
-0.28346336 0.37285984 0.13161981
-0.27331166 0.36891544 0.12901932
-0.25190818 0.35672534 0.13383245
-0.26768577 0.37309012 0.13047224
-0.25991745 0.36773388 0.13095391
-0.30346917 0.40514922 0.13003886
-0.30318534 0.41033161 0.13104761
-0.30486763 0.414276 0.12988806
-0.29920654 0.46358097 0.12987158
-0.29883772 0.47146976 0.12947264
-0.30313198 0.42372191 0.13006532
-0.29526345 0.48210096 0.13044867
-0.2914651 0.49513614 0.1293481
-0.2242974 0.30974948 0.13257945
-0.22202481 0.30186069 0.13157102
-0.21048776 0.28016651 0.13105895
-0.23313447 0.32053538 0.13152639
-0.20852531 0.2900195 0.13351843
-0.24214009 0.32953064 0.13062769
-0.24866161 0.33885482 0.13031836
-0.03200805 0.49081807 0.132924
-0.25190818 0.35027993 0.1303128
-0.00538337 0.47900122 0.13054271
-0.26176918 0.51896334 0.13168608
-0.25418736 0.52459779 0.12970123
-0.27650328 0.51082084 0.13041535
-0.24155414 0.52650055 0.13054834
-0.20260322 0.52866352 0.13079083
-0.18583953 0.52877614 0.12995778
-0.14836776 0.51843575 0.13587747
-0.12371528 0.52669132 0.1319122
-0.11779869 0.52669132 0.1322611
-0.07441032 0.5244239 0.12976372
-0.11286819 0.53852451 0.12850696
-0.06060493 0.52531156 0.13029486
-0.03508954 0.50290729 0.12877546
-0.0961045 0.5483855 0.12881756
-0.08517051 0.53458011 0.13068344
-0.08032691 0.5444411 0.12815636
-0.08131301 0.52639568 0.13069449
-0.08821571 0.54339473 0.12983926
-0.03496635 0.49513614 0.1324954
-0.04679954 0.52908653 0.13026929
-0.04285514 0.53107721 0.12945926
-0.04235692 0.52406698 0.13262787
-0.10990989 0.61636508 0.12988806
-0.1000489 0.61569893 0.12978303
-0.18324984 0.68150713 0.13188995
-0.0941323 0.61684573 0.12988806
-0.08789511 0.61928551 0.12941761
-0.17927688 0.66277301 0.12988806
-0.18020104 0.67268405 0.13237236
-0.18858039 0.74560535 0.13383245
-0.05450803 0.67066181 0.12988806
-0.0499461 0.6844672 0.1302954
-0.08125127 0.62738654 0.13121641
-0.0748356 0.63168144 0.12988806
-0.07017268 0.63713443 0.12950084
-0.06627565 0.64606144 0.13176531
-0.03496635 0.71486247 0.12988806
-0.03091344 0.72114402 0.12997517
-0.03078252 0.7268821 0.12988806
-0.22035301 0.77984565 0.13045406
-0.20851982 0.78011882 0.13456407
-0.20457542 0.7744922 0.13173476
-0.20063102 0.77892666 0.13332215
-0.19668663 0.77483505 0.12928054
-0.19274223 0.77682579 0.12988806
-0.18810046 0.75349414 0.12988806
-0.23245662 0.79972738 0.13006771
-0.1903545 0.77518833 0.13186026
-0.23381621 0.8067435 0.13032493
-0.23135278 0.81857669 0.13002461
-0.2282418 0.82417929 0.12971348
-0.04019552 0.7490567 0.13655177
-0.03481129 0.75941074 0.13195817
-0.01510842 0.79984081 0.13200648
-0.03095157 0.76313508 0.1294961
-0.0292841 0.77107044 0.13066456
-0.08869916 0.86564802 0.13818894
-0.02855808 0.77814662 0.1332573
-0.02510536 0.77784598 0.13262729
-0.01882009 0.77420223 0.13040546
-0.01129997 0.77313417 0.12991989
-0.00735557 0.77518833 0.12839365
-0.04169265 0.83710326 0.13490486
-0.03708927 0.82679343 0.13761714
-0.05223622 0.85021099 0.13341059
0.00249404 0.11452916 0.13076803
0.00521946 0.11844623 0.13039804
-0.13259017 0.86958906 0.14029571
-0.12183544 0.8729353 0.13481969
0.01828301 0.14237124 0.12881541
0.0320884 0.14605701 0.1304307
0.03873593 0.1638068 0.12939349
0.03800499 0.1461432 0.12915611
0.02664426 0.17320209 0.13142819
0.03780976 0.15000141 0.13043681
0.0360328 0.1578902 0.13186228
0.02222741 0.18386856 0.13061744
0.02190787 0.19043148 0.13044357
0.04193377 0.1578902 0.12867457
0.0320884 0.21409786 0.12912157
0.0301162 0.20053899 0.12871481
0.02909368 0.22492837 0.13160936
0.03676599 0.23280989 0.13051165
0.35170129 0.17087784 0.13321954
0.0372915 0.23875034 0.13118076
0.03570226 0.24663913 0.13243565
0.35567102 0.16801365 0.13477245
0.33580697 0.17366779 0.13073611
0.33186257 0.17426431 0.12915492
0.32989037 0.17761219 0.13021249
0.32616332 0.18953903 0.13081518
0.31896627 0.19733417 0.13078946
0.3216387 0.20127857 0.13383245
0.33006287 0.20522296 0.13999087
0.36306679 0.23533329 0.13777685
0.37327874 0.23743168 0.13723829
0.0360328 0.27030551 0.12899715
0.0360328 0.27890688 0.13088846
0.03585815 0.25847232 0.12966254
0.03997719 0.27942407 0.12942687
0.03997719 0.2900275 0.13202834
0.03540042 0.26537502 0.12931418
0.04786599 0.2900275 0.12926579
0.04627738 0.31665218 0.13132519
0.04589379 0.32749927 0.13217998
0.05575478 0.31763828 0.12827283
0.05610096 0.33144367 0.13029632
0.05181038 0.36557627 0.13383245
0.0320884 0.46089911 0.12988806
0.0104747 0.47409728 0.12929976
0.0261718 0.46201334 0.13163
0.04396152 0.41248077 0.13428885
0.18394768 -0.92918366 0.13284636
0.18986428 -0.92907071 0.13383245
0.19380867 -0.92994976 0.12988806
-0.33386777 0.1321854 0.12988806
-0.41998243 0.17947572 0.13186026
-0.33209515 0.14211261 0.13383245
-0.18198711 0.07900226 0.12988806
-0.18002295 0.08886325 0.12988806
-0.18954295 0.70813358 0.12988806
-0.13651025 0.62332904 0.12988806
-0.18868078 0.71306407 0.13310862
-0.17696464 0.65741444 0.12988806
-0.17365044 0.65093982 0.12988806
-0.15145963 0.8670878 0.13510552
-0.09117401 -0.01171887 0.12864819
-0.08032691 -0.01566327 0.12909025
-0.08427131 -0.00974667 0.12814757
-0.06849372 -0.01171887 0.12823331
-0.05764663 -0.01566327 0.12762624
-0.05271614 -0.01171887 0.12738338
-0.34410846 0.24663913 0.127894
-0.21246421 0.00405872 0.12828684
-0.21246421 -0.00383008 0.1273824
-0.20851982 0.00011432 0.12813401
-0.1039933 -0.00383008 0.12846321
-0.0961045 -0.00777447 0.12813717
-0.0961045 -0.00383008 0.12806427
-0.10793769 0.00011432 0.12891454
-0.1000489 0.00011432 0.12859362
-0.07736862 -0.00777447 0.12844416
-0.03693855 0.00997531 0.12865204
-0.06405628 -0.00777447 0.12860611
-0.02609146 -0.00777447 0.12717023
-0.02609146 -0.00185788 0.12790889
-0.16315925 0.1618346 0.12680298
-0.16513145 0.1578902 0.12774241
-0.34460151 0.25551403 0.12690298
-0.33769882 0.25551403 0.12719753
-0.33720577 0.26931942 0.12769334
-0.32882392 0.25452793 0.12662506
-0.33276832 0.27030551 0.1284067
-0.32882392 0.27720821 0.12873435
-0.32487953 0.27424991 0.12905866
-0.32487953 0.26241672 0.1270332
-0.32290733 0.30186069 0.12912422
-0.32685173 0.30481899 0.12785125
-0.31304634 0.2831248 0.1288211
-0.30515754 0.29594409 0.12792525
-0.31304634 0.31566608 0.1289935
-0.299734 0.31270778 0.1273275
-0.31896293 0.32158267 0.1281206
-0.30417144 0.31467998 0.12831107
-0.31304634 0.32947147 0.12815292
-0.30466449 0.32947147 0.12821995
-0.31896293 0.32947147 0.12714362
-0.31304634 0.33933246 0.12770677
-0.30712974 0.34722126 0.1292274
-0.30318534 0.34130466 0.12869024
-0.30712974 0.35313785 0.12859583
-0.29332435 0.33489501 0.12700051
-0.06356323 0.52866352 0.12832016
-0.07046592 0.53260791 0.12757492
-0.0961045 0.5523299 0.1273585
-0.07441032 0.53655231 0.12775862
-0.08624351 0.5483855 0.12835288
-0.19274223 0.77321613 0.1280055
0.04392159 0.15197361 0.12749344
0.20221567 -0.92681897 0.12988806
0.24903023 -0.8430602 0.12988806
0.20958626 -0.92351383 0.12988806
0.21761471 -0.91900808 0.13173521
0.26480782 -0.88726744 0.13817096
0.24188876 -0.90362877 0.12988806
0.26988578 -0.8794862 0.13777685
0.27024806 -0.87159741 0.12988806
0.27023256 -0.86370862 0.12988806
0.26480782 -0.85279965 0.12988806
0.25954258 -0.84793103 0.12988806
0.26698101 -0.85581982 0.12988806
0.25691903 -0.84602934 0.12988806
-0.45160925 0.10661304 0.12988806
-0.45015287 0.11450183 0.12988806
-0.37049627 0.06716907 0.12988806
-0.36565948 0.07505786 0.12988806
-0.43729484 0.15019679 0.12988806
-0.36247283 0.08294666 0.12988806
-0.35841945 0.09087557 0.12988806
-0.43184412 0.1618346 0.12988806
-0.42840111 0.1678741 0.12988806
-0.35494584 0.09872425 0.12988806
-0.34262931 0.11541462 0.12988806
-0.44657695 0.12633502 0.12988806
-0.33828437 0.12239063 0.12988806
-0.44238067 0.13816822 0.12988806
-0.16095799 0.63535905 0.12988806
-0.16819471 0.64305103 0.12988806
-0.14540946 0.62632251 0.12988806
-0.15329826 0.63001382 0.12988806
-0.19525793 0.84815967 0.13375527
0.36736214 0.1539458 0.13151526
0.37525094 0.1522274 0.12988806
0.38323987 0.1539458 0.12994093
0.40835941 0.17761219 0.12988806
0.39102852 0.15723419 0.12988806
0.39668405 0.1618346 0.12988806
0.41469491 0.18856561 0.12988806
0.40390587 0.16972339 0.12988806
0.41713858 0.19338977 0.12988806
0.41917574 0.20127857 0.12988806
0.42040288 0.20916736 0.12988806
0.38313973 0.23819178 0.13383245
0.39102852 0.23646504 0.13383245
0.40680611 0.22925282 0.12988806
0.39891732 0.23331231 0.13174474
0.41990232 0.21705616 0.12988806
0.41380274 0.22463253 0.12957451
0.39102852 0.1539458 0.12767577
0.40680611 0.1618346 0.12448287
0.40680611 0.16972339 0.1264751
0.4225837 0.21705616 0.12692845
-0.05271614 -0.2047478 0.13545549
-0.05657451 -0.20897829 0.13424692
-0.04482734 -0.21616414 0.13338488
-0.04679954 -0.19784783 0.13662238
-0.07441032 -0.17639744 0.13523102
-0.03496635 -0.21288311 0.13317466
-0.03496635 -0.18724453 0.13675719
-0.08429702 -0.1561626 0.13397074
-0.07232444 -0.18823063 0.13459831
-0.02123963 -0.18724453 0.13284226
-0.02753031 -0.16850865 0.13499922
-0.02645731 -0.16357815 0.13490316
-0.03102195 -0.14780056 0.14041549
-0.02383605 -0.14997195 0.13633221
-0.02116096 -0.14578637 0.13532385
-0.14146507 -0.04437844 0.13265702
-0.02100208 -0.13798169 0.13574073
-0.13141757 -0.05781471 0.13304287
-0.13199697 -0.05319577 0.13391605
-0.14225131 -0.02355206 0.13872868
-0.14373018 -0.01270497 0.13777685
-0.13752067 -0.04919064 0.1331355
-0.11582649 -0.0759192 0.13323241
-0.09491231 -0.12314808 0.13335589
-0.10801373 -0.08331466 0.13342366
-0.10198814 -0.09405816 0.13255676
-0.0941323 -0.11624539 0.13415229
-0.09028977 -0.1004678 0.1338799
-0.09561145 -0.09545533 0.13347982
-0.01748805 -0.12906468 0.13348944
-0.0148696 -0.11607684 0.13383245
-0.01051438 -0.0965234 0.13450882
-0.01133686 -0.08674271 0.13378114
-0.0264069 -0.0743999 0.13472456
-0.01812345 -0.07877362 0.13383245
-0.1059655 -0.01960766 0.13882399
-0.11385429 -0.01375043 0.13777685
-0.0961045 -0.01566327 0.1315881
-0.08337557 -0.02276894 0.13383245
-0.09358929 -0.02157986 0.13600031
-0.12371208 -0.06575351 0.13354093
-0.07539642 -0.02416536 0.13344726
-0.06849372 -0.02445258 0.13301864
-0.05449437 -0.05473134 0.13402584
-0.03200805 -0.02840483 0.13274539
-0.04088295 -0.02714485 0.1340594
-0.05557579 -0.05116284 0.13315535
-0.05419528 -0.02755689 0.13587879
-0.04384124 -0.02457902 0.13259971
-0.03508154 -0.03144085 0.13421939
0.18000329 -0.92701598 0.13622108
0.18539643 -0.85187542 0.1380865
0.16501918 -0.8834306 0.13703093
0.24114144 -0.84450352 0.13777685
-0.44513022 0.04010791 0.13494033
-0.41560066 0.02344975 0.13763103
-0.40992203 0.02554275 0.1355513
-0.44928311 0.04345337 0.1359289
-0.45278807 0.0483522 0.13668415
-0.43532264 0.02683461 0.13950792
-0.38451779 0.04350269 0.13777685
-0.45544624 0.06125247 0.13580465
-0.45668113 0.07900226 0.13777685
-0.38387743 0.21614733 0.13490103
-0.33621636 0.13135165 0.13475758
-0.40388633 0.1973405 0.13580465
-0.39921916 0.1993975 0.13904184
-0.33250963 0.18500793 0.13686325
-0.35150421 0.22136486 0.13472957
-0.33288415 0.20589615 0.13476184
-0.3736375 0.218522 0.13564905
-0.3662957 0.22467136 0.13371527
-0.36057907 0.22298943 0.13470875
-0.14902347 0.00011432 0.13383245
-0.14905207 0.00603092 0.13279694
-0.13431808 0.00405872 0.1336289
-0.12418851 0.00011432 0.13263503
-0.14540946 0.00405872 0.13471401
-0.14343727 0.00997531 0.1320383
-0.13160408 0.02180851 0.13496032
-0.13724926 0.0237807 0.13372594
-0.14146507 0.00405872 0.13497245
-0.13718251 0.0296973 0.1333213
-0.12864578 0.01687801 0.1335701
-0.18879783 0.10858524 0.1422292
-0.19274223 0.06354654 0.13358527
-0.18903822 0.06768084 0.13383245
-0.19668663 0.05381423 0.13359177
-0.19681466 0.06519687 0.13396931
-0.19399291 0.05928028 0.13383245
-0.18485343 0.07534838 0.13383245
-0.18256158 0.08097446 0.13383245
-0.19668663 0.07308567 0.13458294
-0.18020232 0.0919743 0.13383245
-0.1789027 0.10365474 0.13383245
-0.12820096 0.10266864 0.13373059
-0.1485309 0.11055744 0.13383245
-0.14205819 0.10638773 0.13383245
-0.15329826 0.11450183 0.13250577
-0.11558467 -0.00481617 0.13222229
-0.07152691 0.00614326 0.13317493
-0.06773496 0.01195631 0.13460068
-0.06248997 0.01391971 0.13416132
-0.11803719 0.01586837 0.13383245
-0.05933331 0.01786411 0.13342652
-0.05916062 0.0237807 0.13369727
-0.1020211 0.00800312 0.13091218
-0.08806811 0.01392779 0.13499366
-0.04587121 0.03758609 0.13307124
-0.04285514 0.04941928 0.13273001
-0.11210573 0.07653701 0.13422918
-0.1049794 0.08097446 0.13417771
-0.12371528 0.06953159 0.13285893
-0.09070879 0.07568625 0.13418615
-0.08063301 0.07900226 0.13314781
-0.09216011 0.08174396 0.13408542
-0.11977088 0.07209957 0.13377672
-0.11773346 0.0809416 0.13285946
-0.06804998 0.07111347 0.13341016
-0.07243812 0.08294666 0.13346595
-0.07243812 0.05928028 0.13702977
-0.11007315 0.08787715 0.13431421
-0.11982469 0.09167457 0.13298776
-0.12272918 0.09872425 0.13349414
-0.04684993 0.05718614 0.1329383
-0.05567443 0.07111347 0.13190895
-0.05764663 0.08790922 0.13500471
-0.04088295 0.09182155 0.13572198
-0.01720573 0.1075834 0.13370456
-0.03291284 0.08442581 0.13288987
-0.03693855 0.09477985 0.13604385
-0.15670919 0.14605701 0.13383245
-0.14146507 0.14538974 0.1341708
-0.13527291 0.14599527 0.13414353
-0.17406099 0.1549319 0.13383245
-0.13949287 0.15197361 0.13264543
-0.13070937 0.14971517 0.1360911
-0.17235312 0.1638068 0.13383245
-0.13752067 0.1638068 0.13602865
-0.16909811 0.18550098 0.13363725
-0.14531737 0.18303573 0.1345117
-0.15329826 0.14967 0.13383245
-0.20020436 0.23381984 0.13333236
-0.20044047 0.24545518 0.1337581
-0.19584115 0.21212566 0.14172125
-0.16795188 0.19338977 0.13383245
-0.16513145 0.20184314 0.13383245
-0.16115253 0.21106875 0.13500845
-0.00165334 0.11844623 0.13439199
-0.15426967 0.21113956 0.13470912
-0.15724266 0.21229577 0.13409394
-0.27064407 0.3830782 0.13439261
-0.28799358 0.40332805 0.13416907
-0.27518469 0.38097125 0.13316739
-0.25979698 0.37416881 0.13409841
-0.29431045 0.41230381 0.13477796
-0.29924095 0.41230381 0.13316983
-0.26372222 0.38075645 0.13450146
-0.29888456 0.4201926 0.13361812
-0.28104617 0.38788253 0.13349827
-0.29645874 0.43200436 0.13366848
-0.28592861 0.39618823 0.13318169
-0.28740776 0.44188678 0.13927519
-0.29017958 0.45470607 0.13674882
-0.29529655 0.47146976 0.13254702
-0.20039807 0.27326381 0.13699064
-0.29158065 0.47911787 0.13393313
-0.28937995 0.4867543 0.13341771
-0.28332672 0.49513614 0.13430542
-0.21197116 0.31295431 0.13736758
-0.23822783 0.33558466 0.13364808
-0.24401939 0.35036004 0.13664472
-0.22232521 0.33933246 0.138192
-0.23072494 0.33880085 0.13607026
-0.24796379 0.34823549 0.13383245
-0.01918876 0.47541416 0.13528249
-0.01287711 0.46688493 0.13758067
-0.27557456 0.50302494 0.13495028
-0.02510536 0.47773603 0.13649979
-0.26959376 0.51082388 0.13371713
-0.25388038 0.5187107 0.13425522
-0.24599159 0.51868805 0.13571444
-0.2361306 0.52274692 0.13398039
-0.18485343 0.52200508 0.13456565
-0.17499244 0.51492712 0.13724241
-0.20457542 0.52458286 0.13374478
-0.16907585 0.51816353 0.13545631
-0.13554847 0.52124253 0.13422118
-0.11977088 0.51898345 0.13578865
-0.11385429 0.52448583 0.13372219
-0.08229911 0.51748645 0.13535744
-0.08430167 0.52074018 0.13341641
-0.07243812 0.518471 0.13383245
-0.09283669 0.53173319 0.13300844
-0.05906516 0.52119142 0.13383245
-0.04088295 0.49316394 0.13843
-0.04066522 0.49877802 0.13602391
-0.1020211 0.5235253 0.13635129
-0.0980767 0.53381447 0.13257582
-0.05074394 0.52044219 0.13744295
-0.11582649 0.61957064 0.13679075
-0.12371528 0.62106246 0.13777685
-0.04679954 0.52020353 0.13738668
-0.10793769 0.61866084 0.13481855
-0.09863135 0.61947095 0.13373816
-0.12765968 0.62103963 0.13383245
-0.18717815 0.72193897 0.13580465
-0.1879331 0.74473678 0.13777685
-0.17500949 0.66277301 0.13777685
-0.17220348 0.65488422 0.13777685
-0.09132236 0.62332904 0.13383245
-0.18696451 0.69432819 0.13383245
-0.18838477 0.70221698 0.13383245
-0.08032691 0.63194218 0.13501027
-0.07441032 0.63556892 0.13338268
-0.07120603 0.64107883 0.13553804
-0.04805022 0.70801449 0.13580465
-0.04717126 0.71207798 0.13580465
-0.04307209 0.71613684 0.13454489
-0.03693056 0.71799457 0.13279974
-0.03496635 0.72193897 0.13284373
-0.04106504 0.72588336 0.136246
-0.05089351 0.69273227 0.13697892
-0.03665464 0.72982776 0.13309148
-0.038423 0.73574436 0.13399607
-0.22577655 0.79786861 0.1333853
-0.22826109 0.80630225 0.13372101
-0.19274223 0.78139031 0.13364899
-0.21813247 0.78800762 0.13474491
-0.21246421 0.78110492 0.13421154
-0.2282418 0.8146323 0.13329142
-0.21827696 0.82003447 0.13722876
-0.19668663 0.78307712 0.13458794
-0.21840864 0.82964812 0.13360085
-0.18887479 0.75349414 0.13594346
-0.18829116 0.76335514 0.13383245
-0.20804526 0.8400684 0.13617316
-0.18886103 0.77259678 0.13411006
-0.03686976 0.7737771 0.13567215
-0.0365309 0.77913272 0.13673228
-0.14059728 0.86740132 0.14228239
-0.02522938 0.80757107 0.13816261
-0.01721656 0.77864662 0.13342807
-0.01522368 0.78103149 0.13384143
-0.01989564 0.79688251 0.13722509
-0.01129997 0.78110492 0.13174999
-0.10322889 0.86970573 0.13674159
-0.08032243 0.86179931 0.13940748
-0.05066905 0.84138477 0.14018124
-0.00143898 0.12207252 0.13502061
0.00246027 0.13062894 0.13263857
-0.11542258 0.86934951 0.14035633
0.00645946 0.14014041 0.13350283
0.00644982 0.15080607 0.13662523
0.0330745 0.1638068 0.13204858
0.02106895 0.1628207 0.13665591
0.01236641 0.14605701 0.13272083
0.02297634 0.14959435 0.1340588
0.01534444 0.17563999 0.1358933
0.0251857 0.1539458 0.13533828
0.01835486 0.22651988 0.13483241
0.01631081 0.18747318 0.13307101
0.01281455 0.19536197 0.13465488
0.03060132 0.23086154 0.13280231
0.01236641 0.20127857 0.13507712
0.0332092 0.23677814 0.13383245
0.33751768 0.17706729 0.13639231
0.35249442 0.22504285 0.14451379
0.35947335 0.1618346 0.13395345
0.35547417 0.23094851 0.13979338
0.33570108 0.18094373 0.13788909
0.33374578 0.18835485 0.13589734
0.33141387 0.19141757 0.13527548
0.32791817 0.19828868 0.13777685
0.03169921 0.24663913 0.13665077
0.03001833 0.25650012 0.13777685
0.33312599 0.21160641 0.13922047
0.03097451 0.26689321 0.13440391
0.34195134 0.21654487 0.14349952
0.02418315 0.28081822 0.14170602
0.0320884 0.2777341 0.13350725
0.04005717 0.32552707 0.1340868
0.0340606 0.29545105 0.13614775
0.03997719 0.33933246 0.13508761
0.03976354 0.29791629 0.13331428
0.04003641 0.30613446 0.13384303
0.04983819 0.33440197 0.13238555
0.04983819 0.34722126 0.13413984
0.05181038 0.35147685 0.13381737
0.04103184 0.42497072 0.13404301
0.04724967 0.39685959 0.13383245
0.0142246 0.46136224 0.13400666
0.00053322 0.46343106 0.13647521
0.028144 0.44583118 0.13632309
0.0365078 0.43535808 0.13505167
0.03506994 0.44681728 0.13282603
-0.05666053 -0.21682751 0.13236621
-0.04778564 -0.22175801 0.13207176
-0.0990628 -0.11230099 0.13240686
-0.1000489 -0.1044122 0.13216987
-0.08624351 -0.01960766 0.13181782
-0.19274223 0.05336368 0.13166887
-0.20457542 0.0257529 0.13086116
-0.13949287 0.01983631 0.13243979
-0.20063102 0.0336417 0.13095146
-0.20063102 0.04350269 0.13154614
-0.20063102 0.04941928 0.13165581
-0.19668663 0.04744709 0.13238883
-0.12765968 0.00405872 0.13177419
-0.14146507 0.01391971 0.13123977
-0.13554847 0.00800312 0.13208449
-0.12765968 0.00800312 0.13109303
-0.13061798 0.01194751 0.1317085
-0.11977088 0.00800312 0.13079304
-0.04877174 0.00603092 0.13240793
-0.06060493 0.07505786 0.13210467
-0.06060493 0.07900226 0.13252264
-0.05074394 0.06716907 0.1317625
-0.04877174 0.07505786 0.13132602
-0.15724266 0.15000141 0.1331445
-0.14343727 0.15197361 0.13157862
-0.29924095 0.35708225 0.1307286
-0.29529655 0.35905445 0.13114715
-0.29135215 0.36891544 0.13098484
-0.28937995 0.36497104 0.13132143
-0.28740776 0.37680423 0.13142967
-0.28149116 0.38074863 0.13256201
-0.07046592 0.52077472 0.13186574
0.02222741 0.20423687 0.13131692
0.01631081 0.19634807 0.13281873
0.05575478 0.34426296 0.13116166
-0.06452147 -0.1826941 0.13794058
-0.06849372 -0.16363409 0.13981149
-0.04191964 -0.18721004 0.13787927
-0.03003585 -0.18428624 0.1357992
-0.08021397 -0.14780056 0.13800542
-0.0369533 -0.1712183 0.13839865
-0.08525741 -0.13300908 0.13754678
-0.05863273 -0.19513333 0.13690293
-0.07854639 -0.12018979 0.13978055
-0.11992574 -0.04327404 0.13777685
-0.07606667 -0.11230099 0.13828714
-0.13949287 -0.03427584 0.13700064
-0.14146507 -0.0287776 0.13823944
-0.06634951 -0.1014539 0.13662856
-0.08974475 -0.07582976 0.13686489
-0.07551989 -0.07922122 0.13748549
-0.08813231 -0.12413418 0.13677749
-0.08821571 -0.12018979 0.136617
-0.06257713 -0.08092751 0.13774607
-0.02105197 -0.12540634 0.13780773
-0.03102195 -0.08074582 0.13783979
-0.01524436 -0.1054011 0.13777685
-0.02116096 -0.09060681 0.13691175
-0.05803415 -0.10259339 0.13777685
-0.02100842 -0.09942619 0.13971633
-0.01507908 -0.09792253 0.13777685
-0.02795184 -0.07877362 0.13777685
-0.03116059 -0.07482922 0.13777685
-0.09699875 -0.06102383 0.13777685
-0.1055029 -0.05361938 0.13772741
-0.08579706 -0.0690903 0.13850284
-0.06652153 -0.03200677 0.14091501
-0.0609397 -0.04382563 0.13974905
-0.05100787 -0.03913462 0.13777685
-0.09018791 -0.02848959 0.14172125
-0.04934616 -0.03127 0.13773447
-0.05028684 -0.03538525 0.13870826
-0.04829603 -0.06299603 0.13777685
-0.04000992 -0.06891263 0.13777685
-0.06022582 -0.05456382 0.13985994
-0.06143725 -0.05116284 0.13885504
0.17803109 -0.92400724 0.1391657
-0.06013164 -0.04721844 0.13738737
0.17803109 -0.91893017 0.14449644
0.17634574 -0.91498578 0.14467955
0.1726933 -0.91104138 0.14089629
0.17650902 -0.87159741 0.14623636
0.1672374 -0.89329159 0.13876295
0.17997257 -0.85802218 0.1393913
0.19380867 -0.9251852 0.14369345
0.16926144 -0.887375 0.14282647
0.16954984 -0.8775684 0.14156727
0.19972527 -0.84492549 0.13777685
0.20761406 -0.84414673 0.13640657
0.23719704 -0.84562135 0.13974905
-0.455662 0.05040538 0.13974905
-0.44323744 0.02427375 0.14517011
-0.42451164 0.01984147 0.14264587
-0.40163444 0.02511687 0.14259827
-0.39390647 0.03294694 0.13777685
-0.38010108 0.21276356 0.13848367
-0.45741162 0.06519687 0.13974905
-0.33420801 0.14901531 0.13974905
-0.41757286 0.17732239 0.13777685
-0.41584593 0.17761219 0.14172125
-0.33600991 0.15838325 0.14242554
-0.4096023 0.18730816 0.13974905
-0.33344597 0.17563999 0.13838689
-0.33747754 0.18987614 0.13945676
-0.34064431 0.19367453 0.14045048
-0.34006005 0.20527326 0.13720454
-0.35208829 0.2070953 0.1395781
-0.36580265 0.21192163 0.13948227
-0.14512199 -0.00185788 0.13681066
-0.12574995 -0.00604102 0.13763627
-0.35698144 0.21425061 0.13764073
-0.14146507 -0.00231922 0.13837296
-0.13752067 -0.00230533 0.1386326
-0.13357627 -0.00298172 0.13833797
-0.19356661 0.09872425 0.13842387
-0.19274223 0.07675776 0.13746533
-0.19274223 0.08689106 0.13909733
-0.18879783 0.0806078 0.1388759
-0.18786657 0.07703006 0.13721788
-0.18463108 0.08273354 0.13786036
-0.18189338 0.09283981 0.13777685
-0.13251939 0.1067833 0.13761428
-0.13833493 0.11055744 0.13806778
-0.14540946 0.11450183 0.13628113
-0.17936665 0.10069644 0.13777685
-0.12272918 0.0277251 0.13849184
-0.12075698 0.02408412 0.13749601
-0.06356323 0.03383967 0.13736612
-0.13019413 0.0296973 0.13676679
-0.0599882 0.03955829 0.13745373
-0.12765968 0.03758609 0.13757521
-0.05863273 0.04744709 0.13718843
-0.1000489 0.0226672 0.13793401
-0.05863273 0.05336368 0.13642174
-0.12559941 0.04862727 0.13716912
-0.12174308 0.05105862 0.13838521
-0.11779869 0.05514407 0.13855559
-0.08624351 0.02127242 0.13766018
-0.10793769 0.06618297 0.13697404
-0.0750069 0.0227946 0.1369143
-0.1020211 0.07111347 0.13583919
-0.08920181 0.06519687 0.13686109
-0.10792159 0.09872425 0.13744551
-0.06801857 0.0543347 0.13766639
-0.0980767 0.09817719 0.13826317
-0.08254564 0.09788866 0.13822147
-0.1204543 0.10375044 0.13770092
-0.05468833 0.09872425 0.13879049
-0.02510536 0.11233425 0.13890731
-0.04679954 0.09801379 0.13814725
-0.00735557 0.11844623 0.13663924
-0.0383375 0.10063568 0.13802803
-0.1924889 0.14797893 0.14566836
-0.14738166 0.13225162 0.13763219
-0.14146507 0.12436283 0.13934463
-0.14738166 0.13619602 0.13779199
-0.14738166 0.14039293 0.13729167
-0.13949287 0.13619602 0.1385594
-0.13160408 0.14014041 0.1358518
-0.17400834 0.14014041 0.13777685
-0.17266275 0.15000141 0.14061394
-0.19873739 0.1608485 0.13981075
-0.19853581 0.17268169 0.13989821
-0.17048031 0.17366779 0.13777685
-0.1967166 0.23755966 0.13753963
-0.13440368 0.17820394 0.13989301
-0.13752067 0.18352878 0.13913089
-0.16907585 0.18451327 0.13739765
-0.16745055 0.19536197 0.13777685
-0.16568834 0.20325077 0.13772929
-0.16390061 0.20916736 0.13777685
-0.19573943 0.22691715 0.13993782
-0.14741609 0.20127857 0.13683143
-0.15832579 0.22297275 0.13777685
-0.14146507 0.20127857 0.13999544
-0.15681656 0.23481759 0.13777423
-0.14987886 0.23480594 0.13777685
-0.16096915 0.21561733 0.13777685
-0.15329826 0.240394 0.13790989
-0.15329826 0.21705616 0.13607991
-0.12371528 0.13441384 0.13812661
-0.12371528 0.13794148 0.13734698
-0.15329826 0.22100055 0.13638651
-0.12371528 0.14168286 0.13732269
-0.00801668 0.12436283 0.13837662
-0.00932777 0.13065764 0.13881215
-0.0056833 0.13422382 0.13661245
-0.01401234 0.13816822 0.13882756
-0.01386499 0.14211261 0.13859403
-0.00143898 0.14211261 0.13652807
-0.25184195 0.37795249 0.1423932
-0.29135215 0.42068565 0.13713698
-0.27163017 0.39711252 0.13899621
-0.27557456 0.39060962 0.1356281
-0.29109941 0.42857444 0.13743827
-0.26374137 0.39554012 0.13962695
-0.27902591 0.41378295 0.13977024
-0.26768577 0.39559379 0.13943252
-0.25979698 0.38832286 0.13855258
-0.27153872 0.40853736 0.14204055
-0.28847069 0.46752536 0.13768014
-0.19447412 0.24959743 0.13928518
-0.19670917 0.26007646 0.1377922
-0.28149116 0.48527515 0.13815004
-0.19869028 0.28463165 0.13951552
-0.27557456 0.49513614 0.13797903
-0.20457542 0.29594409 0.13691831
-0.20684963 0.30403274 0.13732088
-0.25190818 0.36482763 0.13777685
-0.23810279 0.34912251 0.13790106
-0.04088295 0.48906615 0.14012453
-0.26965797 0.50302494 0.1374436
-0.25979698 0.51288593 0.13629615
-0.24796379 0.51288593 0.13897145
-0.23727559 0.51485813 0.13888457
-0.21739471 0.51584423 0.13882448
-0.19570053 0.51827351 0.13670138
-0.18682563 0.51528612 0.13836938
-0.21246421 0.51288593 0.14031184
-0.20394589 0.50843461 0.14191698
-0.15724266 0.50792921 0.14220011
-0.13899982 0.50844192 0.14065637
-0.10990989 0.51488793 0.1395905
-0.0980767 0.52228016 0.13665295
-0.04443781 0.50119647 0.13974905
-0.08920181 0.51660168 0.13707566
-0.04679954 0.50949275 0.14172125
-0.05468833 0.51525247 0.14172125
-0.08427131 0.50904492 0.14620295
-0.04724625 0.51485813 0.14050937
-0.13386685 0.6242913 0.13777685
-0.18683659 0.71207798 0.13777685
-0.16604218 0.64876762 0.14219438
-0.17577217 0.66967571 0.13978645
-0.18629599 0.73377216 0.13777685
-0.17830866 0.68169294 0.13959517
-0.18453932 0.69597521 0.13777685
-0.10793769 0.62211627 0.14172125
-0.1030215 0.62382984 0.14172125
-0.18451899 0.71010578 0.14172125
-0.05246156 0.69942138 0.14171124
-0.04679954 0.72193897 0.13877666
-0.04264556 0.73303828 0.1378607
-0.0690764 0.65083273 0.14381857
-0.20851982 0.79392421 0.14036125
-0.21236853 0.79104567 0.13843369
-0.20457542 0.78504932 0.13713753
-0.19668663 0.79133463 0.13844782
-0.18767774 0.77716053 0.14172125
-0.19274223 0.78504932 0.13620651
-0.19032088 0.78307712 0.13777685
-0.21210726 0.79885471 0.14084873
-0.22019646 0.8106879 0.13761553
-0.21246421 0.8087157 0.14209437
-0.21105357 0.83260018 0.13980819
-0.18817037 0.76729953 0.13777685
-0.20594715 0.83631125 0.14348939
-0.18697131 0.77321613 0.14172125
-0.14935386 0.86538124 0.14172125
-0.03693855 0.78470957 0.13896108
-0.02658451 0.78858928 0.13957734
-0.02444217 0.79247648 0.14003673
-0.03468732 0.81885589 0.1407773
-0.05997131 0.84812553 0.14242223
-0.06987029 0.85246223 0.14566565
-0.04752295 0.83444384 0.14259822
-0.00057906 0.14809655 0.13865972
0.01506621 0.15410101 0.13770887
0.01631081 0.1578902 0.13870943
0.0101821 0.17958438 0.13818473
0.00648335 0.18845928 0.13995573
0.00940812 0.21804225 0.13828146
0.01138031 0.23205514 0.13791879
0.01143366 0.24365243 0.13991338
0.34369576 0.1780979 0.14098877
0.01828301 0.2391983 0.13760924
0.35980695 0.16577899 0.14107013
0.33696851 0.18550098 0.13989422
0.33580697 0.19338977 0.13928735
0.32791817 0.20127857 0.13871479
0.02348804 0.24811828 0.14018106
0.02940917 0.24466693 0.13777685
0.02960831 0.2860831 0.1377943
0.0360328 0.31566608 0.13653636
0.03196832 0.33637416 0.13942665
0.03436556 0.30777729 0.13727239
0.0360328 0.33341587 0.1365065
0.0360328 0.34748802 0.13756403
0.04786599 0.36595714 0.13631546
0.03997719 0.37285984 0.13911071
0.04005346 0.38666523 0.13945505
0.0396392 0.41283426 0.1376434
0.0360328 0.4203921 0.13849288
0.0436475 0.38863742 0.1376105
0.0320884 0.43910345 0.13672438
0.01644435 0.43421037 0.14243009
0.01433861 0.44681728 0.13922483
0.00250542 0.45174778 0.14061677
-0.42245832 0.171094 0.13777685
-0.34105784 0.12239063 0.13777685
-0.17749211 0.11341318 0.13777685
-0.17659956 0.12436283 0.13675284
-0.17484993 0.13422382 0.13777685
-0.16063212 0.64107883 0.14240849
-0.15329826 0.63329113 0.14172125
-0.0538094 0.6785506 0.13777685
-0.05870263 0.6657905 0.13974905
-0.05467775 0.6746062 0.13781875
0.3647536 0.1618346 0.14566565
-0.06454933 -0.19414723 0.13602099
-0.13653457 -0.04130185 0.13507223
-0.12371528 -0.04721844 0.13528311
-0.08772266 -0.11230099 0.13560353
-0.07786167 -0.1044122 0.13582674
-0.08180606 -0.1014539 0.13483767
-0.10892379 -0.07384312 0.13492975
-0.07145202 -0.09159291 0.13526802
-0.08427131 -0.08962071 0.13513489
-0.05468833 -0.08666241 0.13610752
-0.05912578 -0.09455121 0.13570176
-0.03891075 -0.09060681 0.13614644
-0.03792465 -0.09455121 0.13677132
-0.12051046 -0.06151688 0.13472001
-0.12174308 -0.05116284 0.13489401
-0.03299415 -0.08666241 0.13644964
-0.10793769 -0.05905163 0.13605738
-0.11286819 -0.05313504 0.13611063
-0.01524436 -0.08863461 0.13596529
-0.01918876 -0.08666241 0.13644063
-0.02313316 -0.07877362 0.13640225
-0.19274223 0.06914127 0.13556147
-0.07983387 0.01490581 0.13559623
-0.1000489 0.08294666 0.13435572
-0.09018791 0.09083545 0.13661933
-0.07243812 0.09477985 0.13687262
-0.03200805 0.10069644 0.13638261
-0.15329826 0.14211261 0.13545084
-0.14935386 0.14605701 0.13533258
-0.15329826 0.23480594 0.13688064
-0.15724266 0.21705616 0.13569236
-0.00341117 0.12633502 0.13639748
-0.00538337 0.13816822 0.13635147
0.01828301 0.23283374 0.13589281
0.04786599 0.37680423 0.13588476
0.20169747 -0.92471331 0.13777685
0.21353066 -0.9201147 0.13777685
0.24903023 -0.84511358 0.13777685
0.22884816 -0.91255319 0.13777685
0.24903023 -0.90064949 0.13777685
0.25691903 -0.89526379 0.14076543
0.24755818 -0.9022314 0.14566565
0.2720561 -0.87159741 0.13777685
0.2580002 -0.84745109 0.13777685
0.27193153 -0.86370862 0.13777685
0.26480782 -0.85169435 0.13777685
0.26856899 -0.85581982 0.13777685
-0.36045197 0.08700728 0.13777685
-0.37911028 0.05139148 0.13777685
-0.35452086 0.09872425 0.13777685
-0.4562003 0.09083545 0.13777685
-0.4555155 0.09872425 0.13777685
-0.34987134 0.10661304 0.13777685
-0.45346671 0.10986441 0.13777685
-0.34551299 0.11450183 0.13777685
-0.44982874 0.12239063 0.13777685
-0.44582149 0.13154984 0.13777685
-0.44026536 0.14211261 0.13777685
-0.37604359 0.05541921 0.14221638
-0.3662957 0.07398701 0.13777685
-0.43396002 0.1539458 0.13777685
-0.4292776 0.1616143 0.13777685
-0.18056844 0.8537322 0.13752954
-0.16907585 0.85926151 0.13777685
0.37696719 0.1539458 0.13777685
0.36736214 0.15495992 0.13777685
0.38313973 0.15813208 0.13777685
0.39102852 0.1618346 0.1345607
0.40680611 0.17259598 0.13777685
0.39102852 0.16282594 0.13777685
0.41075706 0.17761219 0.13777685
0.40073401 0.1685614 0.13777685
0.41550148 0.18442571 0.13777685
0.42142045 0.19338977 0.13777685
0.42260945 0.20056683 0.13774341
0.4223572 0.20916736 0.13777685
0.39729846 0.23283374 0.13777685
0.40680611 0.22809505 0.13777685
0.41619802 0.2188614 0.13777685
0.41147232 0.22494495 0.13777685
-0.17696464 0.13027942 0.13571429
-0.06060493 -0.15963376 0.14261043
-0.06652153 -0.14434922 0.14415213
-0.05468833 -0.15766156 0.1436348
-0.05074394 -0.16160595 0.14276636
-0.07441032 -0.14582837 0.14126003
-0.04487369 -0.16207198 0.14175221
-0.07243812 -0.13793957 0.14305037
-0.0388273 -0.15846585 0.14071532
-0.03891075 -0.14484227 0.14400557
-0.07046592 -0.13202298 0.14378351
-0.07934082 -0.12807858 0.14052147
-0.13160408 -0.03111477 0.14176142
-0.06060493 -0.11821759 0.14409304
-0.13554847 -0.02731299 0.14223903
-0.13830355 -0.02355206 0.14214951
-0.14059651 -0.01566327 0.14101157
-0.06454933 -0.11032879 0.14009619
-0.05173004 -0.11427319 0.14426991
-0.13789396 -0.00974667 0.14155576
-0.02806365 -0.1013129 0.1404862
-0.03891075 -0.11032879 0.14393437
-0.02707756 -0.13332653 0.14088064
-0.02313316 -0.11766028 0.14172125
-0.02087936 -0.10425429 0.14099839
-0.10255918 -0.05017674 0.14066412
-0.02470765 -0.11230099 0.14312035
-0.11245702 -0.04130185 0.14197204
-0.12247834 -0.03538525 0.14193475
-0.08498959 -0.06026881 0.14187253
-0.11269104 -0.02124417 0.14190313
-0.07337308 -0.06710005 0.14177965
-0.12684022 -0.01345199 0.14188391
-0.05863273 -0.06694043 0.14402068
-0.10207017 -0.02558521 0.14209284
-0.05468833 -0.07088482 0.14268994
-0.04482734 -0.07482922 0.1404177
-0.07508752 -0.03552516 0.14547162
-0.05540276 -0.06102383 0.14172125
-0.04877174 -0.07088482 0.1419251
-0.04904664 -0.06694043 0.14172125
-0.06576425 -0.04721844 0.14240164
0.18394768 -0.9230581 0.14612721
-0.0618657 -0.03932965 0.14261764
0.18591988 -0.92531538 0.14331329
-0.0636307 -0.03538525 0.14289998
-0.05764663 -0.0319768 0.139727
0.1801748 -0.86885729 0.14772916
0.18986428 -0.92513496 0.14467955
0.19545144 -0.85397112 0.1458383
0.17276934 -0.89131939 0.14665174
0.21254456 -0.84622701 0.14172125
-0.44912803 0.03000316 0.14490819
-0.45324323 0.03404125 0.1459107
0.2385819 -0.8477768 0.14566565
-0.45656052 0.03568905 0.14885499
-0.40764327 0.02193731 0.14265314
-0.46068254 0.04350269 0.15158224
-0.3954674 0.0277251 0.14566565
-0.41560066 0.01851624 0.14475775
-0.33964962 0.13027942 0.14172125
-0.3389741 0.13816822 0.14369345
-0.40784515 0.18390325 0.14571153
-0.39834615 0.19271749 0.14565354
-0.34262931 0.18155658 0.14367068
-0.38996208 0.20199728 0.14328921
-0.38544139 0.20116186 0.14558619
-0.37911499 0.20423687 0.14451906
-0.37037358 0.2032285 0.14489179
-0.35594908 0.19732495 0.14487533
-0.13357627 -0.0102053 0.14188296
-0.18448955 0.09675205 0.14124292
-0.18879783 0.09477985 0.14115536
-0.34755518 0.1936505 0.14334837
-0.18121533 0.10436428 0.14172125
-0.10499502 0.03560209 0.14173789
-0.17890003 0.11351573 0.14172125
-0.09352165 0.03754179 0.14178097
-0.11582649 0.03955829 0.1411891
-0.10448635 0.0421067 0.14167774
-0.08821571 0.04350269 0.14133185
-0.12484729 0.11055744 0.14172125
-0.12963188 0.11647403 0.1418041
-0.11582649 0.10744733 0.14149803
-0.10803231 0.10659419 0.14199471
-0.06257713 0.10661304 0.14415729
-0.05271614 0.10661304 0.14310473
-0.08821571 0.10661304 0.14376551
-0.03894636 0.10784566 0.14092769
-0.07638252 0.10661304 0.14434528
-0.04581305 0.11055744 0.14313915
-0.03698419 0.11647403 0.1424557
-0.19357872 0.13422382 0.14273214
-0.13087246 0.12436283 0.14160646
-0.18910529 0.1598624 0.15019393
-0.19014856 0.16775119 0.15001443
-0.12765968 0.1654819 0.14109409
-0.19631734 0.19832027 0.14172125
-0.17696464 0.12375987 0.14172125
-0.17349303 0.14014041 0.14172125
-0.14146507 0.20916736 0.1410054
-0.16503766 0.20226467 0.14369345
-0.16359832 0.21006742 0.14369345
-0.16062373 0.21973409 0.14268923
-0.10959131 0.12633502 0.14168495
-0.1039933 0.13027942 0.14250284
-0.13537244 0.22888935 0.14356361
-0.11566537 0.14726713 0.14189878
-0.15899581 0.23184764 0.14172125
-0.111817 0.13718212 0.1408594
-0.1568152 0.24374181 0.14172125
-0.14935386 0.24072254 0.13956201
-0.13616623 0.2329578 0.1441355
-0.11681259 0.15422665 0.14291848
-0.14303267 0.23677814 0.14172125
-0.12272918 0.12534893 0.14140134
-0.03299415 0.12633502 0.14492297
-0.02411926 0.14649144 0.1411196
-0.01749358 0.12239063 0.14074229
-0.02214706 0.14932232 0.14194705
-0.02098625 0.12633502 0.14246713
-0.01129997 0.15000141 0.1422224
-0.02075137 0.13027942 0.14259607
-0.00538337 0.14816493 0.14022869
-0.01918876 0.13351274 0.14172125
-0.00165555 0.1539458 0.14053211
-0.00341117 0.15809208 0.14167851
-0.0247895 0.1424959 0.14133221
-0.25606588 0.39159572 0.14167133
-0.28313594 0.43367326 0.14155614
-0.25825897 0.39849842 0.14148304
-0.28346336 0.44681728 0.14218986
-0.26770905 0.40737331 0.14306228
-0.25979698 0.40433317 0.14232281
-0.27951896 0.46358097 0.14358664
-0.27552719 0.42049897 0.14185065
-0.27951896 0.47245586 0.14203548
-0.28149116 0.42813389 0.14141873
-0.27360237 0.47590721 0.1438233
-0.27360237 0.48626125 0.14129436
-0.19225174 0.26340282 0.14132917
-0.26768577 0.49612224 0.14055584
-0.19272296 0.27372482 0.14170399
-0.15329826 0.24523056 0.14120585
-0.15016824 0.24466693 0.14172125
-0.19626348 0.31297246 0.14526115
-0.20457542 0.32256877 0.14257166
-0.22232521 0.34919345 0.14003056
-0.23810279 0.36891544 0.14397055
-0.24401939 0.36439192 0.14172125
-0.24796379 0.36827052 0.14172125
-0.2282418 0.35313785 0.13990122
-0.2361306 0.35967392 0.14153302
-0.2242974 0.37088764 0.14476848
-0.21640861 0.35116565 0.14262187
-0.02017807 0.45839209 0.14353144
-0.01277912 0.45376684 0.14300426
-0.0303429 0.47492865 0.14107071
-0.25979698 0.50302494 0.14063281
-0.25190818 0.50721313 0.14085448
-0.24401939 0.50857496 0.14155996
-0.23243272 0.50712943 0.14287671
-0.19471443 0.50105274 0.14586383
-0.1871551 0.50592694 0.14325394
-0.15329826 0.5069589 0.14279175
-0.17104805 0.5041394 0.14274058
-0.11545607 0.50475106 0.14504738
-0.11040294 0.5086062 0.14356501
-0.0970906 0.51288593 0.14114803
-0.08821571 0.51254737 0.14129925
-0.05961883 0.51220638 0.14412928
-0.04813549 0.49119174 0.14498608
-0.14751054 0.63105899 0.14379252
-0.13512081 0.6269886 0.14324109
-0.05074394 0.51457503 0.14241049
-0.17378181 0.69038379 0.14651829
-0.16957691 0.66080081 0.14566565
-0.0970906 0.6293401 0.14344598
-0.18447196 0.72489727 0.14172125
-0.08229911 0.64045857 0.14654514
-0.18480453 0.73823601 0.14172125
-0.18574585 0.74363315 0.14185157
-0.12174308 0.62250757 0.14172125
-0.11582649 0.62159455 0.14172125
-0.06225756 0.66587469 0.14763784
-0.05501497 0.6785506 0.14172125
-0.05501088 0.68619287 0.14396445
-0.05074394 0.71831924 0.14167613
-0.05057469 0.73971792 0.14583892
-0.04712288 0.73299997 0.14147955
-0.20457542 0.79595496 0.14122239
-0.19668663 0.80082691 0.14245868
-0.0510326 0.7490567 0.14784471
-0.19274223 0.80279911 0.14383376
-0.18757898 0.75349414 0.14566565
-0.21005131 0.82350719 0.14334641
-0.20461649 0.82869503 0.14893061
-0.18881533 0.75743854 0.14186996
-0.20247207 0.83999151 0.14343143
-0.18734178 0.76335514 0.14369345
-0.19570053 0.84281349 0.14665174
-0.18642586 0.76927173 0.14172125
-0.18682563 0.84793687 0.14566565
-0.18978089 0.78899372 0.14172125
-0.19089732 0.79491031 0.14172125
-0.21246421 0.81492004 0.14195615
-0.04397543 0.77124393 0.141415
-0.12371528 0.86788166 0.14431494
-0.04537943 0.78209102 0.14297074
-0.04481134 0.78800762 0.14346761
-0.10484033 0.86534801 0.14467955
-0.04117814 0.79104386 0.14295359
-0.03595245 0.79096591 0.1420888
-0.0280603 0.79985856 0.14246222
-0.0311773 0.80704302 0.14348519
-0.00143898 0.1598624 0.14176655
0.00836255 0.1598624 0.14095762
0.00743592 0.16417271 0.14209908
0.00220218 0.21902835 0.14229575
0.00865704 0.16775307 0.14129145
-0.00115329 0.23046078 0.14335862
0.00053322 0.23875034 0.14250228
0.00647467 0.24269474 0.14092854
-0.0045836 0.17761219 0.14566565
0.35920972 0.17070949 0.14467955
0.00447762 0.18155658 0.1410315
0.35158455 0.17704833 0.14250815
0.35539398 0.1755849 0.14363472
0.00208873 0.20325077 0.14215064
0.33975136 0.18111998 0.14199334
0.33923113 0.19338977 0.14223528
0.33873218 0.21113956 0.1443525
0.34797123 0.22040385 0.1454007
0.01680386 0.25685962 0.14374875
0.02440804 0.25540233 0.1418128
0.028144 0.25452793 0.13967878
0.02461883 0.26636112 0.14208105
0.36556193 0.23224528 0.14450518
0.01991314 0.28559005 0.14506426
0.00595677 0.2550804 0.14427531
0.02840322 0.32454097 0.14233652
0.02608066 0.36028707 0.14398271
0.0320884 0.35783352 0.1404215
0.02334106 0.38765132 0.14645965
0.0340606 0.37335289 0.14119524
0.0360328 0.40540111 0.14047039
0.02505565 0.41856301 0.1430368
0.0320884 0.4201926 0.14036724
0.028144 0.43005359 0.14023125
0.02767992 0.40311389 0.14388404
-0.00143898 0.44188678 0.14465004
-0.07934082 -0.13695347 0.14020246
-0.01918876 -0.1083566 0.14042181
-0.0931462 -0.06003773 0.13930154
-0.03891075 -0.07482922 0.139642
-0.12470138 -0.01073277 0.14005813
-0.04285514 -0.07088482 0.14038658
-0.14146507 -0.00777447 0.1399225
-0.18879783 0.08886325 0.14076871
-0.18485343 0.08886325 0.13925207
-0.12371528 0.0326556 0.1392583
-0.11779869 0.0336417 0.14061439
-0.13160408 0.11055744 0.14019132
-0.1030072 0.0296973 0.14054826
-0.09018791 0.0316695 0.14106262
-0.12174308 0.03955829 0.14008749
-0.08131301 0.0316695 0.14016038
-0.11582649 0.04646099 0.14054424
-0.08229911 0.03758609 0.14109103
-0.11188209 0.05237758 0.13991153
-0.07342422 0.03561389 0.13972777
-0.1039933 0.05139148 0.14038146
-0.09216011 0.05139148 0.14017987
-0.08377826 0.04941928 0.1400751
-0.07243812 0.04350269 0.13989866
-0.13752067 0.12436283 0.14058644
-0.14146507 0.13225162 0.13941294
-0.13554847 0.13027942 0.14031047
-0.12765968 0.1598624 0.14014494
-0.11385429 0.13225162 0.14011976
-0.01228607 0.14605701 0.13973635
-0.1000489 0.51683033 0.13887388
-0.19274223 0.79293811 0.13969576
-0.06269843 -0.13892567 0.1457036
-0.05659394 -0.14284596 0.14621616
-0.06060493 -0.13300908 0.1462988
-0.04877174 -0.14188397 0.14639845
-0.06156047 -0.12413418 0.14532346
-0.04285514 -0.14582837 0.14489484
-0.03496635 -0.12814474 0.14566565
-0.05217959 -0.11821759 0.14569983
-0.04088295 -0.11439614 0.1454595
-0.03299415 -0.11427319 0.14529121
-0.0972324 -0.04524624 0.1460954
-0.0316565 -0.11821759 0.14552587
-0.0726522 -0.06147191 0.14489604
-0.06750762 -0.06251553 0.14505416
-0.09018791 -0.05116284 0.14578819
-0.06915589 -0.04919064 0.14583185
-0.07835472 -0.05510724 0.14759171
-0.06822273 -0.04327404 0.14494541
-0.10574335 -0.03932965 0.14566565
-0.11271274 -0.03538525 0.14476982
-0.0644418 -0.05707943 0.14527488
-0.10793769 -0.03149417 0.14557737
-0.11188209 -0.02749646 0.14446592
-0.09388578 -0.03368254 0.14621177
-0.06408824 -0.06102383 0.14544827
-0.08624351 -0.03408168 0.14580296
-0.06978512 -0.03932965 0.14589006
0.17577527 -0.90182463 0.14763784
0.19085038 -0.86962521 0.1564278
0.17325169 -0.8834306 0.14763784
0.20366967 -0.85268282 0.14878504
0.20761406 -0.84849176 0.14528897
0.17643362 -0.877514 0.14922719
0.22930825 -0.847471 0.14566565
-0.43929232 0.01407805 0.15155074
-0.42348945 0.0145514 0.14924629
-0.45995853 0.05434978 0.14828236
-0.4161557 0.01306765 0.15410525
-0.45863205 0.07505786 0.14566565
-0.41797695 0.16622585 0.15158224
-0.41359518 0.17243248 0.15059614
-0.34116569 0.14211261 0.14752007
-0.34335424 0.1578902 0.14888808
-0.3544625 0.19338977 0.14600849
-0.34503049 0.12436283 0.1471929
-0.36641973 0.19547715 0.14840988
-0.34734368 0.18550098 0.14529186
-0.08561031 0.11046854 0.14553463
-0.06947982 0.11055744 0.14619204
-0.09216011 0.11450183 0.14531776
-0.06069577 0.11055744 0.14566565
-0.17244102 0.15002382 0.14566565
-0.19176766 0.17465389 0.14824627
-0.19112454 0.1916641 0.14782394
-0.18485343 0.11561126 0.14499599
-0.18822327 0.12635253 0.14534277
-0.18090904 0.12149584 0.14566565
-0.19299468 0.20719516 0.14566565
-0.17780453 0.1292941 0.14566565
-0.17450842 0.14014041 0.14566565
-0.19184679 0.22494495 0.14566565
-0.09500022 0.11844623 0.14479403
-0.08563979 0.12386978 0.14612044
-0.16196771 0.21508396 0.14862394
-0.07169415 0.13032715 0.14554068
-0.05791685 0.12048769 0.1451651
-0.18913011 0.24580371 0.14574324
-0.09216011 0.13668907 0.14535399
-0.08032691 0.12534893 0.14630935
-0.08756383 0.14604112 0.14552474
-0.16118705 0.22447693 0.15355444
-0.07133318 0.13952186 0.1460932
-0.15928131 0.23677814 0.14566565
-0.12963188 0.23677814 0.14978456
-0.10150138 0.15990786 0.14592177
-0.11582649 0.1598624 0.1439352
-0.05271614 0.13422382 0.14732265
-0.04679954 0.12041843 0.14427665
-0.04043905 0.1264714 0.14565161
-0.09862006 0.16972339 0.14740666
-0.06046073 0.12830722 0.145518
-0.03284179 0.13718212 0.14498554
-0.04088295 0.15000141 0.14409751
-0.06105991 0.16577899 0.14508319
-0.06802601 0.17169559 0.14566278
-0.03271686 0.13027942 0.14547062
-0.06849372 0.17563999 0.14576524
-0.05468833 0.1588763 0.14503622
-0.12174308 0.18944538 0.14548266
-0.04050881 0.1618346 0.14566565
-0.12900326 0.20916736 0.14523695
-0.03220809 0.15587778 0.14465555
-0.0502952 0.16985795 0.14653577
-0.06099346 0.17400026 0.14557916
-0.12903693 0.21607006 0.14555347
-0.12790844 0.22494495 0.1459948
-0.00832146 0.18550098 0.14538705
-0.02510536 0.15720949 0.14665881
-0.01721656 0.15630886 0.14621645
-0.01721656 0.19338977 0.14611745
-0.01457432 0.1588763 0.14635256
-0.01721656 0.19733417 0.14609683
-0.00931544 0.16378263 0.14494412
-0.00907791 0.20029247 0.14628044
-0.00143898 0.19733417 0.14426363
0.00053322 0.16577899 0.14409697
-0.00480655 0.21804225 0.14603409
-0.01064479 0.24072254 0.14649627
-0.26205194 0.41636708 0.14624763
-0.25585258 0.4110876 0.14504004
-0.26454096 0.4231509 0.1469098
-0.27261627 0.43251884 0.14371637
-0.26767463 0.4465152 0.14563778
-0.27360237 0.46866801 0.14524829
-0.26561555 0.48219861 0.14485954
-0.27573612 0.45622329 0.14572014
-0.26965797 0.44977558 0.14533544
-0.25632715 0.49173661 0.14471281
-0.18858869 0.26266325 0.14503604
-0.18848203 0.27720821 0.14537789
-0.15724266 0.24619722 0.14566565
-0.15592378 0.24861133 0.14566565
-0.14938411 0.25254282 0.14961758
-0.14369218 0.24800584 0.14908485
-0.15329826 0.24861133 0.14486074
-0.18880293 0.2900275 0.14656621
-0.21640861 0.37162624 0.14703858
-0.22035301 0.37495971 0.14627981
-0.00439727 0.24663913 0.14473066
0.00151932 0.25058353 0.14376038
-0.00943783 0.25945842 0.14833301
-0.2262696 0.3837355 0.14734498
-0.24796379 0.38396895 0.14602385
-0.25136411 0.39183073 0.14542425
-0.24401939 0.38880995 0.14825803
-0.25310144 0.40835941 0.14566565
-0.00939792 0.43890216 0.14706183
-0.03496635 0.47174323 0.14566565
-0.04581344 0.4822387 0.14596547
-0.03496635 0.46340275 0.14961004
-0.24155414 0.49119174 0.14699629
-0.23859584 0.50006664 0.14513445
-0.18090904 0.49316394 0.14831114
-0.22281826 0.49809444 0.14604971
-0.22232521 0.50499713 0.14388976
-0.20851982 0.49878621 0.14610279
-0.170555 0.48843719 0.1505796
