0.15538013 -0.9603678 0.06750202
-0.25000909 -0.07606828 0.06822842
0.15562171 -0.95774686 0.06732959
0.1472913 -0.95303434 0.06750202
-0.25714844 -0.05989069 0.06512773
0.15538013 -0.95614296 0.06750202
-0.25714844 -0.05180192 0.0647614
-0.25714844 -0.04371309 0.06695259
0.12475753 -0.88090336 0.0655328
-0.25714844 -0.02753556 0.06809127
0.12344843 -0.86877012 0.07420999
-0.25648972 -0.01944673 0.06665647
0.13920248 -0.91252542 0.06750202
0.13545096 -0.90921414 0.06750202
0.19394171 -0.8040598 0.06750202
0.1472913 -0.91730291 0.0715667
0.13111365 -0.90202928 0.06750202
0.18371487 -0.78788221 0.06750202
0.17964649 -0.92041397 0.06750202
0.1877352 -0.91803634 0.06565213
0.02192271 -0.68272787 0.06750202
0.19582403 -0.91743727 0.07278103
0.17964649 -0.78066045 0.0664199
0.00918925 -0.65931168 0.06750202
0.17127204 -0.76361585 0.06750202
0.00272107 -0.64876044 0.06750202
0.17565012 -0.77170461 0.06750202
-0.00784385 -0.63419509 0.06750202
0.08638549 -0.56948477 0.06750202
0.10552844 -0.61682555 0.06668675
0.07464397 -0.54493885 0.06807667
0.07156289 -0.53712958 0.06750202
0.06513703 -0.47241923 0.06750202
0.06995821 -0.52904081 0.06750202
0.06946242 -0.52095199 0.06750202
0.06718892 -0.51286322 0.06958151
0.06579363 -0.45624161 0.06750202
0.06674117 -0.44974664 0.06750202
0.06891048 -0.44006407 0.06750202
0.07006264 -0.43197525 0.06750202
0.06962764 -0.42388648 0.06750202
0.01915908 -0.18122262 0.06750202
0.06663531 -0.41560228 0.06791249
0.02064413 -0.16100064 0.06750202
0.06235397 -0.40770888 0.06750202
0.02175772 -0.14886743 0.06750202
0.05706877 -0.39165668 0.07154638
0.05827612 -0.38292038 0.06750202
0.0614866 -0.3591761 0.06750202
0.06177068 -0.35108733 0.06750202
-0.27081293 0.06144118 0.06750202
0.05831456 -0.34528899 0.07559073
-0.27013308 0.07357442 0.06750202
0.04207498 -0.27040622 0.06750202
-0.26855573 0.08975196 0.06750202
0.03959978 -0.26211059 0.06750202
-0.26573077 0.10533142 0.06750202
0.036726 -0.25402176 0.06750202
0.03454232 -0.245933 0.07559073
0.02060056 -0.19335583 0.06750202
-0.30644971 0.17468429 0.06750202
-0.2175045 0.01290846 0.06790113
-0.30217189 0.18277311 0.06750202
-0.29681839 0.19564122 0.06750202
-0.20861566 0.00481963 0.06801188
-0.24590099 0.01290846 0.06750202
-0.24097085 0.01710522 0.06750202
-0.23288208 0.01885664 0.06750202
-0.29136449 0.20703948 0.07154638
-0.22479326 0.01665413 0.06750202
-0.28645456 0.22321713 0.06750202
-0.28222218 0.23289567 0.06750202
-0.26043129 0.12615156 0.06750202
-0.2784729 0.23939466 0.06750202
-0.25430048 -0.0113579 0.06750202
-0.25245959 -0.0032692 0.06750202
-0.24963513 0.00481963 0.06950688
-0.24905968 0.00742257 0.06750202
-0.25064611 0.16255116 0.06750202
-0.38136286 0.27174985 0.07559073
-0.3765505 0.27983868 0.06750202
-0.24687546 0.17468429 0.06750202
-0.24399123 0.18681753 0.06750202
-0.24111295 0.20299512 0.06750202
-0.36709416 0.30814946 0.06750202
-0.27359936 0.24799168 0.06750202
-0.23938698 0.2151283 0.06750202
-0.23815838 0.22726154 0.06750202
-0.3582747 0.33646023 0.06750202
-0.38000298 0.26366103 0.06750202
-0.34841424 0.36477101 0.06750202
-0.34396648 0.37690425 0.06750202
-0.34129769 0.38499296 0.06750202
-0.33803642 0.40356994 0.06750202
-0.33622926 0.41734815 0.06750202
-0.29635546 0.53059125 0.06902295
-0.33058822 0.4534868 0.06750202
-0.28775656 0.53868008 0.06962049
-0.32633364 0.4739697 0.06750202
-0.27332604 0.55148649 0.06750202
-0.32334375 0.49014735 0.06750202
-0.3211447 0.49823618 0.06750202
-0.26945233 0.55485773 0.06750202
-0.23791769 0.25152791 0.06750202
-0.25865376 0.56409794 0.06750202
-0.26523721 0.26428747 0.07559073
-0.25981718 0.27174985 0.06750202
-0.24953145 0.57103527 0.06611764
-0.24097085 0.27077782 0.0678913
-0.24097085 0.57612145 0.06750202
-0.25714844 0.27675939 0.06750202
-0.22211298 0.58604825 0.06750202
-0.25229394 0.28792751 0.06750202
-0.24198258 0.27983868 0.06750202
-0.24582016 0.28792751 0.06750202
-0.20861566 0.59114265 0.06750202
-0.24905968 0.28792751 0.06525218
-0.31803626 0.50632489 0.06750202
-0.1946336 0.59628177 0.06750202
-0.31328022 0.51441371 0.06858444
-0.1843493 0.60162807 0.06750202
-0.30568123 0.52250254 0.06932592
-0.17626053 0.60339046 0.07796085
-0.17305142 0.61147928 0.06750202
-0.1681717 0.61956799 0.06731844
-0.16573346 0.62765682 0.06750202
-0.20233747 0.69089204 0.06750202
-0.16762355 0.64383447 0.06603467
-0.17398596 0.65568864 0.06809765
-0.02198911 0.64383447 0.06750202
-0.01509738 0.65192318 0.06750202
-0.16299385 0.63574564 0.07559073
-0.00639582 0.6539942 0.07559073
-0.18434486 0.67619628 0.0755474
-0.17993486 0.66810083 0.07559073
-0.19243807 0.68259227 0.06750202
-0.17644829 0.85414302 0.07559073
-0.16984832 0.86223185 0.07118866
-0.00389147 0.83796549 0.06750202
-0.16008294 0.8784095 0.06933701
-0.0122714 0.85414302 0.06750202
-0.04279539 0.8883211 0.06750202
-0.02274555 0.8700971 0.06750202
-0.0171715 0.86223185 0.06750202
-0.12772775 0.90876198 0.07559073
-0.12035996 0.91094583 0.07559073
-0.03023827 0.8784095 0.06750202
-0.11155015 0.91235805 0.07559073
-0.09537256 0.91038859 0.06850445
-0.08728379 0.91014433 0.06913173
-0.06387901 0.90267587 0.06847936
0.08845794 0.11806273 0.06750202
-0.05318999 0.89579958 0.06750202
0.08928192 0.13019598 0.06750202
0.09085476 0.14232922 0.06750202
0.27671194 0.17283154 0.06750202
0.28480077 0.17127633 0.06750202
0.26930821 0.17489094 0.06750202
0.2928896 0.17034984 0.06750202
0.26053441 0.17810011 0.06750202
0.30894482 0.27174985 0.06735259
0.31715596 0.26905513 0.06750202
0.30097842 0.27374291 0.06750202
0.00962356 0.66008595 0.07154638
0.33333361 0.25918615 0.06750202
0.32631248 0.26435411 0.06750202
0.01787055 0.66453743 0.06750202
0.02452487 0.66919845 0.06750202
0.03317851 0.67713571 0.06750202
0.00434446 0.81369913 0.06750202
-0.01092279 -0.62610632 0.06750202
-0.01380908 -0.61801755 0.06750202
-0.05071139 -0.48050803 0.06750202
0.05841535 -0.32637987 0.06750202
0.05682039 -0.31873214 0.06750202
0.05534196 -0.31064332 0.06750202
0.05348945 -0.30255455 0.06750202
0.05052167 -0.29364452 0.06750202
0.0600934 -0.33490974 0.06750202
-0.0711062 -0.43197525 0.06282151
-0.25714844 -0.10842347 0.06210148
-0.25714844 -0.08820149 0.06282985
-0.25714844 -0.0720239 0.06331664
0.1472913 -0.95774686 0.06375849
-0.21670449 -0.0032692 0.0623312
-0.21670449 0.00481963 0.06462801
-0.22479326 0.01290846 0.06443262
-0.25714844 0.27174985 0.06200516
-0.24905968 0.27983868 0.06163752
0.02595937 -0.22294617 0.06750202
0.02389455 -0.21357781 0.06750202
0.02800989 -0.2297554 0.06750202
-0.33353317 0.4335258 0.06750202
-0.07273548 -0.41150071 0.07435623
-0.27425894 -0.14077866 0.07239562
-0.26523721 -0.14295584 0.07154644
-0.06621105 -0.4324808 0.07227409
-0.06820545 -0.42388648 0.07356858
-0.2822592 -0.12134505 0.07352045
-0.07705817 -0.40164226 0.07356858
-0.28282367 -0.11261003 0.07505205
-0.10320445 -0.34936441 0.07602274
-0.28811723 -0.10437906 0.07154644
-0.28748742 -0.08769593 0.07154644
-0.08875737 -0.37338001 0.07441557
-0.09437615 -0.36322051 0.07442194
-0.28583784 -0.07084543 0.07157162
-0.28331083 -0.04813666 0.0716334
0.09363057 -0.80720226 0.0760147
0.22191706 -0.90112531 0.07660189
0.22518045 -0.89441982 0.07154644
0.1161671 -0.84160119 0.07761294
0.23018168 -0.8892418 0.07433994
0.24117705 -0.87281454 0.08671287
0.10548356 -0.82226074 0.07559073
0.10007095 -0.81631934 0.07376409
0.20755085 -0.82255983 0.07356858
0.03900035 -0.70823549 0.07761294
0.03278625 -0.69890547 0.07559073
0.07528603 -0.77979338 0.07409048
0.02710775 -0.68839387 0.07435879
0.12087488 -0.66250587 0.07154644
0.15457022 -0.74827239 0.07154644
0.14872257 -0.74349968 0.07660782
0.14802843 -0.72721624 0.07337591
0.13156384 -0.6884622 0.0739904
0.12522388 -0.67679241 0.0755376
0.14629567 -0.71595204 0.07255751
0.11898842 -0.66004838 0.07384902
0.14359015 -0.70664075 0.07187247
0.11373937 -0.64632833 0.07154644
0.13723302 -0.69890547 0.07559073
0.10975543 -0.6362173 0.07131499
0.1060351 -0.6314047 0.07457966
0.02477968 -0.12257886 0.0729658
0.09150809 -0.58810675 0.07154644
0.0340482 -0.11078817 0.07321423
0.08516186 -0.57959574 0.07559073
0.04213691 -0.10227458 0.07427904
0.09411621 -0.59798817 0.07457969
0.07534838 -0.55525823 0.07566468
0.06019637 -0.07800056 0.07339653
0.02149773 -0.1338095 0.07337718
0.06640339 -0.06768298 0.07141298
0.0229066 -0.12662327 0.07356858
0.07021606 -0.0504446 0.07154644
-0.27180718 0.04324144 0.07255751
-0.26881382 0.04925708 0.07761294
0.07260748 -0.02508374 0.07361113
-0.40486411 0.13012808 0.0726318
-0.4113571 0.14435136 0.07448094
-0.41152472 0.15749565 0.07430503
-0.41204476 0.16760668 0.07559073
-0.40515131 0.19895077 0.07559073
-0.3381314 0.13371275 0.07663152
-0.3990769 0.21324563 0.07457966
-0.31617832 0.15850675 0.07559073
-0.39465797 0.23130596 0.07911718
-0.37659869 0.11073057 0.07599378
-0.3910524 0.23535031 0.07356858
-0.19032288 -0.0093357 0.07154644
-0.19082609 -0.00124699 0.07154644
-0.1921469 0.00481963 0.07154644
-0.19240887 0.01132005 0.07195929
-0.34364468 0.1318197 0.07154644
-0.19648248 0.01290846 0.07003355
-0.23694955 0.73078901 0.07198387
-0.01089194 0.62127432 0.07356858
-0.24165713 0.74382307 0.07715389
-0.24151987 0.75303316 0.07559073
-0.23192508 0.79967511 0.07654037
-0.02064896 0.63574564 0.07154644
-0.20875252 0.82316057 0.07884286
-0.2333391 0.79145497 0.07259294
0.07411502 0.00330298 0.07123378
0.0744921 0.01493067 0.07086176
0.09066975 -0.0032692 0.06961691
0.08675671 0.00707941 0.07199031
0.09342968 0.00077522 0.07154644
0.09471416 0.00886405 0.07260442
0.09345305 0.01290846 0.07559073
0.08741587 0.07155222 0.07559073
0.08619618 0.08267432 0.07528573
0.0744921 0.02706379 0.07110709
0.08258092 0.01502883 0.07085079
0.08018899 0.02504158 0.07154644
0.08748883 0.11199617 0.07559073
0.07868665 0.03370726 0.07154644
0.0744921 0.03717482 0.07207263
0.09347716 0.16558447 0.07356858
0.09333169 0.01695287 0.07559073
0.10356635 0.20611307 0.07487285
0.22306311 0.21917272 0.07154644
0.22767591 0.23737246 0.0754277
0.25048685 0.19086194 0.07963514
0.32018927 0.16838521 0.07154644
0.23173019 0.20752111 0.07447541
0.34313083 0.17091623 0.07435283
0.22817922 0.21108389 0.07393479
0.22810039 0.21473217 0.07566664
0.36077653 0.18075091 0.07867065
0.35333426 0.23923808 0.07335854
0.37242982 0.20501727 0.08364844
0.23475139 0.24445018 0.07795551
0.11384273 0.25253901 0.07255751
0.23414486 0.25253901 0.07326703
0.12451392 0.31017166 0.07356858
0.13385993 0.43959236 0.07067478
0.13920248 0.44626766 0.0714066
0.13493347 0.46778075 0.07084277
0.13421999 0.39586232 0.07255751
0.13920248 0.46387145 0.07108909
0.13990644 0.45576996 0.07186407
0.13171953 0.46790314 0.07230419
0.13111365 0.47676545 0.07131702
0.13416284 0.41532594 0.07154644
0.13301772 0.42745918 0.07154644
0.12747021 0.48948328 0.07457966
0.13162729 0.43655908 0.07178858
0.08460313 0.54996327 0.07742536
0.06860577 0.56106901 0.07543761
0.27439465 0.27093732 0.0742617
0.11898053 0.53162371 0.07507026
0.10684729 0.54272449 0.07499599
0.34641719 0.24748349 0.07559073
0.03796293 0.58314319 0.07282458
0.0532773 0.57352073 0.07348582
-0.0003292 0.61217956 0.07477368
0.01565868 0.59530599 0.07683118
0.04721832 0.70045602 0.07559073
0.04772818 0.70450044 0.07356858
0.04832804 0.71258914 0.07559073
0.04759875 0.71865577 0.07356858
0.02206481 0.78943276 0.07516879
0.04447061 0.73584446 0.07356858
0.03199613 0.76516628 0.07559073
-0.19243807 -0.00124699 0.06975973
-0.19850469 0.00077522 0.06960595
-0.20052689 0.00481963 0.06917262
-0.19648248 0.00886405 0.06875205
0.07853651 0.01493067 0.06920773
0.07853651 0.02403054 0.07044446
0.14324689 0.46183658 0.06968629
-0.26928163 -0.14077866 0.07661235
-0.26523721 -0.14135015 0.07647377
-0.06301737 -0.43601966 0.07463133
-0.06100314 -0.43820877 0.07788242
-0.0754736 -0.39748 0.07920107
-0.2787069 -0.09338338 0.07984731
-0.09040987 -0.36322051 0.07963514
-0.28065574 -0.07050725 0.07776365
-0.28106128 -0.05697159 0.07660183
-0.09860586 -0.35014648 0.081902
-0.27791741 -0.04169089 0.07963514
-0.10874474 -0.33490974 0.07559073
-0.27721184 -0.02973032 0.07963514
0.12118503 -0.85653682 0.07761294
0.08662534 -0.80001539 0.07898116
0.23909187 -0.88090336 0.08367956
0.08173445 -0.79597104 0.07739732
0.22009039 -0.83523846 0.08138931
0.21200168 -0.82609868 0.07559073
0.23771574 -0.85763529 0.08892088
0.04841959 -0.72721624 0.07559073
0.08077031 -0.78902538 0.08064625
0.0673108 -0.76059444 0.07559073
0.15538013 -0.75090051 0.07559073
0.15045422 -0.74719599 0.07794765
0.15942442 -0.75365669 0.07559073
0.14495593 -0.72317183 0.07761294
0.10592274 -0.63701494 0.07891195
0.09886619 -0.62467211 0.08367956
0.02610058 -0.11684953 0.07742061
0.08839765 -0.58887985 0.07716966
0.02595937 -0.11044568 0.08590668
0.09455112 -0.60386211 0.07733303
0.08160409 -0.57171915 0.07559073
0.07502785 -0.5603849 0.08165735
0.04568607 -0.09527919 0.07875241
0.02101994 -0.13875645 0.07559073
0.05526085 -0.07798564 0.08358338
0.06373215 -0.06797951 0.07559073
0.0639624 -0.04485058 0.08122616
0.06484124 -0.05786851 0.07761294
-0.40072453 0.10960834 0.0810589
-0.27537075 0.00886405 0.07559073
-0.41292731 0.13366812 0.07755497
-0.27346566 0.02504164 0.07502422
-0.41235222 0.12817377 0.07853991
-0.40871218 0.18732308 0.07644011
-0.4119641 0.17567402 0.07761294
-0.40370896 0.20703948 0.08105552
-0.33207454 0.14006454 0.07671663
-0.39729851 0.22119492 0.07559073
-0.32590318 0.14678466 0.07559073
-0.38604689 0.10598981 0.07963514
-0.37325317 0.10771646 0.07915006
-0.18794906 -0.01944673 0.07559073
-0.18907395 -0.00124699 0.07559073
-0.3519751 0.11944067 0.07953422
-0.19061023 0.01290846 0.07559073
-0.20052689 0.02363288 0.07963514
-0.19228587 0.01704037 0.07551315
-0.23760903 0.7287668 0.07559073
-0.23442876 0.72223932 0.07559073
-0.00362349 0.61248624 0.07761294
-0.02227652 0.63574564 0.07559073
-0.22803269 0.81662503 0.08975476
-0.2459358 0.77628842 0.08570176
-0.18614001 0.84408173 0.07741494
0.06954364 0.0113918 0.07489767
0.09066975 0.00481963 0.07338715
0.06861614 -0.01046628 0.07770753
0.08662534 0.01252151 0.07589537
0.09238851 0.00886405 0.07559073
0.07092804 0.04728585 0.07664603
0.0744921 0.04787886 0.07559073
0.07853651 0.04930806 0.07826984
0.06729487 0.02706379 0.07581943
0.08909035 0.06043008 0.07559073
0.08643413 0.01682884 0.07972777
0.08236012 0.027298 0.07559073
0.06521572 0.03616372 0.07799511
0.07044768 0.04223061 0.07532227
0.08625388 0.09177417 0.07487911
0.08065605 0.03919703 0.07559073
0.09314317 0.02706379 0.07761294
0.09233797 0.15041792 0.07559073
0.09387243 0.17569539 0.07761294
0.1047907 0.22523934 0.08240212
0.09471486 0.18806505 0.08201806
0.10339098 0.24242797 0.08677126
0.25425589 0.18559813 0.07761294
0.2405256 0.20215724 0.07858212
0.23338181 0.22119492 0.08192563
0.22754613 0.22928375 0.07573208
0.2471461 0.19675177 0.08173232
0.32120037 0.16764563 0.07559073
0.35267812 0.17108172 0.08155404
0.36457719 0.23357148 0.08313395
0.10628866 0.2495057 0.08350355
0.11288032 0.2672777 0.08064625
0.1134398 0.27781647 0.08367956
0.2493723 0.25344393 0.08142784
0.116262 0.29403279 0.08167579
0.12294379 0.31073755 0.07718444
0.12747724 0.32129374 0.07548691
0.12778872 0.44363672 0.07559073
0.12945771 0.33039361 0.07559073
0.12728369 0.44970334 0.07559073
0.12789297 0.45981437 0.07559073
0.12827992 0.47194749 0.07660183
0.13314497 0.40521502 0.08367956
0.13241352 0.42139256 0.07803056
0.12857732 0.43706463 0.07726485
0.26712089 0.26054594 0.08398924
0.08965865 0.54282819 0.08048584
0.29086739 0.27043796 0.08064625
0.12235999 0.50834709 0.07762346
0.02418527 0.58719893 0.07815865
0.11880749 0.52180868 0.07963514
0.05040139 0.72649586 0.07972831
0.02569842 0.78134394 0.07559073
0.02371258 0.78741056 0.07761294
0.03876066 0.75078645 0.07559073
0.02975133 0.77729952 0.08064625
-0.05856416 -0.45421943 0.07559073
-0.11478496 -0.31064332 0.07963514
-0.0590827 -0.4454383 0.077573
-0.06750199 -0.41503814 0.08080257
-0.07880104 -0.39460313 0.07559073
-0.26056737 -0.14077866 0.07559073
-0.25714844 -0.13893265 0.07559073
0.02199811 -0.67463911 0.07939827
0.1638459 -0.76159364 0.0783847
0.17964649 -0.78850991 0.07559073
0.17571545 -0.78572284 0.07778165
0.17459339 -0.78181559 0.07761294
0.17134225 -0.77209818 0.07559073
0.16732146 -0.76860483 0.07867356
0.09956035 -0.61296204 0.07546979
0.06202623 -0.50910096 0.08147904
0.0608815 -0.4987078 0.07963514
0.06000781 -0.490619 0.07963514
0.05998108 -0.47747472 0.07963514
0.06164762 -0.45854177 0.07761294
0.06294163 -0.4500278 0.07655746
0.0669992 -0.43601966 0.07559073
0.06833255 -0.42388648 0.07559073
-0.26766217 0.0654856 0.07559073
-0.26488754 0.07182624 0.08003072
-0.26280844 0.08570755 0.08367956
-0.26494388 0.09329082 0.07660183
0.09302402 0.03515261 0.07559073
0.09143579 0.04324144 0.07559073
0.0883857 0.11806273 0.07559073
0.13095233 0.34556013 0.07559073
0.13306364 0.36679322 0.07559073
0.13375282 0.37690425 0.07559073
0.29693401 0.26884365 0.08367956
0.13111365 0.44565892 0.07243764
0.13515806 0.45172554 0.07280993
0.13111365 0.46183658 0.0733006
-0.05518034 -0.46433043 0.07667691
-0.00857544 -0.62610632 0.07559073
-0.01108849 -0.61801755 0.07559073
-0.05053771 -0.48050803 0.07559073
-0.01375258 -0.60992873 0.07370663
-0.01337701 -0.59981772 0.08158657
-0.08333004 -0.38344246 0.07559073
-0.02152087 -0.57656243 0.08143513
-0.02828658 -0.561396 0.07559073
-0.11459537 -0.30154344 0.07963514
-0.11269742 -0.29042137 0.08367956
-0.1130625 -0.28637695 0.07559073
-0.03277138 -0.54452267 0.07963514
-0.11396706 -0.27828813 0.07559073
-0.13569382 -0.18481132 0.07935727
-0.04648265 -0.50328457 0.07559073
-0.14015019 -0.17313385 0.07559073
-0.14390534 -0.16128451 0.07559073
-0.04879087 -0.49264121 0.07559073
-0.14908493 -0.14886743 0.07559073
-0.1162349 -0.27019936 0.07559073
-0.25109982 -0.13268983 0.07559073
-0.11707187 -0.26211059 0.07963514
-0.24693531 -0.12460107 0.07559073
-0.11654581 -0.25183816 0.08772397
-0.12157398 -0.24040917 0.07963514
-0.24421281 -0.11651224 0.07559073
-0.24232495 -0.10842347 0.07559073
-0.12548351 -0.2297554 0.07559073
-0.24101481 -0.09957126 0.07564646
-0.24050425 -0.08820149 0.07544488
-0.13167325 -0.19086526 0.08775306
-0.15768772 -0.12460107 0.07559073
-0.24713621 -0.04067978 0.07495001
-0.24905968 -0.02447152 0.07559073
-0.1682851 -0.08886661 0.08000484
-0.1711939 -0.0801127 0.07963514
-0.17521352 -0.06797951 0.07987735
-0.17778291 -0.05989069 0.07987282
-0.24079284 -0.07403436 0.07559073
-0.18000576 -0.05180192 0.07963514
-0.18655109 -0.02753556 0.07559073
-0.24097085 -0.05989069 0.07687342
0.14082861 -0.95774686 0.07559073
0.1472913 -0.95094049 0.07559073
0.15538013 -0.95001841 0.07662541
0.1472913 -0.96463293 0.07559073
0.15538013 -0.96512496 0.07559073
0.16346884 -0.95594817 0.07559073
0.16346884 -0.9604513 0.07559073
0.15538013 -0.9207409 0.07559073
0.16346884 -0.92223108 0.07559073
0.17155766 -0.92426723 0.07901222
0.1877352 -0.92394018 0.08367956
0.14546812 -0.91730291 0.07559073
0.13920248 -0.91248584 0.07559073
0.13005179 -0.88899216 0.07559073
0.13670933 -0.90921414 0.07559073
0.13343418 -0.90112531 0.07559073
0.18769312 -0.79597104 0.07545578
0.20391285 -0.91393781 0.07559073
0.20265037 -0.81382096 0.07559073
0.19582403 -0.8040598 0.07737529
0.01773557 -0.66476181 0.08144879
0.00856256 -0.65225658 0.07559073
0.01262438 -0.6544171 0.08367956
0.00169301 -0.64228392 0.07638097
-0.00549889 -0.63419509 0.07362717
0.07156092 -0.54825166 0.07963514
0.06890297 -0.5330852 0.07559073
0.06555128 -0.41745797 0.07559073
0.05685574 -0.40770888 0.08339757
0.04181308 -0.27933946 0.07559073
0.05625749 -0.38344246 0.07559073
0.03760481 -0.26211059 0.07559073
0.05826056 -0.36726487 0.07559073
0.03604531 -0.25402176 0.07559073
0.02160364 -0.19335583 0.07559073
0.05766961 -0.3591761 0.08012453
0.05738333 -0.35108733 0.08005688
0.02120209 -0.18122262 0.07963514
0.02017593 -0.17313385 0.07559073
0.05396593 -0.33895412 0.08367956
0.02037454 -0.16504502 0.07559073
0.05311203 -0.31873214 0.07559073
0.02087992 -0.15291184 0.07559073
0.05268514 -0.31064332 0.07559073
0.05022871 -0.30255158 0.07559296
0.04690576 -0.29446572 0.07559073
-0.31024343 0.16659558 0.07559073
-0.30568123 0.17468429 0.07392669
-0.29589015 0.19895077 0.07559073
-0.24932811 -0.0113579 0.07598627
-0.24905968 -0.00437611 0.07532746
-0.24739051 0.00481963 0.07559073
-0.3018648 0.18277311 0.07559073
-0.24334836 0.01290846 0.07559073
-0.24097085 0.01594031 0.07559073
-0.23407507 0.02150249 0.07559073
-0.26352412 0.10997403 0.07559073
-0.22479326 0.02197611 0.07559073
-0.21670449 0.02105939 0.07559073
-0.261381 0.12210715 0.07559073
-0.20861566 0.02099729 0.07633865
-0.25874364 0.13424039 0.07559073
-0.25714844 0.14232922 0.07725668
-0.24271849 0.19490635 0.07559073
-0.25309414 0.15850675 0.07559073
-0.24097085 0.20624816 0.07675594
-0.24942824 0.16802222 0.07559073
-0.23778099 0.22321713 0.07559073
-0.24545425 0.18277311 0.07559073
-0.23731077 0.23130596 0.07559073
-0.36695236 0.31219387 0.07559073
-0.38656914 0.24948287 0.07433844
-0.36218649 0.3279807 0.07559073
-0.38292521 0.26366103 0.07559073
-0.35441874 0.35040195 0.07559073
-0.37656444 0.28792751 0.07559073
-0.34868348 0.36881542 0.08367956
-0.37166195 0.29972288 0.07559073
-0.23600781 0.24748349 0.07559073
-0.23649263 0.25557232 0.07559073
-0.26095426 0.27174985 0.07559073
-0.23807329 0.26366103 0.07559073
-0.23896289 0.27174985 0.07559073
-0.25694004 0.27930522 0.07559073
-0.30259039 0.52950498 0.07559073
-0.25298035 0.28792751 0.07559073
-0.24116129 0.27917773 0.07559073
-0.28715886 0.54334024 0.07559073
-0.2431376 0.28792751 0.07559073
-0.24905968 0.28992879 0.07559073
-0.27361327 0.55485773 0.07487494
-0.26290256 0.56294644 0.07559073
-0.32239622 0.50035477 0.07559073
-0.3205902 0.50632489 0.07559073
-0.31643653 0.51441371 0.07559073
-0.25714844 0.56655431 0.07559073
-0.24966079 0.57136989 0.07559073
-0.31187707 0.52034283 0.07559073
-0.23288208 0.57912409 0.07573009
-0.1843493 0.59861565 0.07559073
-0.22479326 0.58309484 0.07559073
-0.21670449 0.58656311 0.07559073
-0.20861566 0.58772451 0.07668012
-0.16881564 0.6123572 0.07559073
-0.20052689 0.59055984 0.07559073
-0.16458851 0.61956799 0.07559073
-0.15960616 0.62765682 0.0824281
-0.16361547 0.64383447 0.07963514
-0.16730949 0.65192318 0.08082283
-0.20509341 0.6942192 0.07559073
-0.19180581 0.684861 0.07559073
-0.02182543 0.64383447 0.07559073
-0.01448464 0.65153879 0.07333571
-0.21670449 0.70341206 0.07559073
-0.2240563 0.70924205 0.07559073
-0.23065698 0.71663356 0.07559073
-0.00600076 0.84605432 0.07417953
-0.1681717 0.87268877 0.08053124
-0.01517743 0.86119187 0.07559073
-0.0439432 0.89052919 0.07559073
-0.1601555 0.88657904 0.08367956
-0.02199721 0.87032068 0.07559073
-0.03008944 0.87894905 0.07559073
-0.15203328 0.89462224 0.08346003
-0.13746819 0.90378457 0.07559073
0.09036326 0.13019598 0.07559073
0.09202504 0.14232922 0.07559073
-0.10346133 0.91284597 0.07559073
-0.09537256 0.91260934 0.07559073
-0.08728379 0.911973 0.07559073
-0.0711062 0.90811944 0.07559073
-0.07916141 0.91077277 0.07549107
0.27671194 0.17301822 0.07559073
-0.06301737 0.90473783 0.07559073
0.28480077 0.17026937 0.07559073
0.2928896 0.16833901 0.07559073
0.30097842 0.16689962 0.07702416
0.30906713 0.16676712 0.07632571
0.26053441 0.1801002 0.07559073
0.26862323 0.17631853 0.07559073
0.30906713 0.26944494 0.07559073
0.31715596 0.26767147 0.07559073
0.34142232 0.25361109 0.07559073
0.00169301 0.65674806 0.07559073
0.33333361 0.26041591 0.07559073
0.32650054 0.2642653 0.07559073
0.01787055 0.66489446 0.08367956
0.03309476 0.67721599 0.07559073
0.02595937 0.67080915 0.08367956
0.03884733 0.68427837 0.07559073
0.0440315 0.6923672 0.07559073
0.01802197 0.79778779 0.07510132
0.00978172 0.81369913 0.07785964
0.00931627 0.82103926 0.08367956
0.00175297 0.83002907 0.07525271
-0.00127184 0.83796549 0.07559073
-0.24905968 -0.12460107 0.07179165
-0.24905968 -0.05180192 0.07179892
-0.20861566 0.01290846 0.07042217
-0.23288208 0.02099729 0.07099974
-0.22479326 0.02099729 0.07307267
-0.05726664 -0.44613065 0.08165735
-0.11191976 -0.31638724 0.08355376
-0.06120487 -0.42500191 0.08460987
-0.26928163 -0.13705775 0.07982963
-0.26662984 -0.1308039 0.08573422
-0.2730638 -0.12156776 0.08200592
-0.27222032 -0.11058526 0.08478061
0.10911965 -0.82428181 0.07963514
0.09673631 -0.80397585 0.08160928
0.10460564 -0.81404117 0.08179875
-0.27244214 -0.01919395 0.08578242
-0.25796324 -0.13655597 0.08367956
-0.25714844 -0.13769627 0.07963514
0.12318686 -0.84955928 0.08589786
0.23015673 -0.89664283 0.0850188
0.23371322 -0.8908537 0.08275983
0.2413892 -0.88474693 0.09026128
0.07749373 -0.77170461 0.08140472
0.07394589 -0.76393999 0.0815453
0.07946426 -0.77574903 0.0822407
0.06467752 -0.74997548 0.07963514
0.05628321 -0.73413655 0.08165735
0.05059512 -0.72470808 0.08165735
0.0463196 -0.7167054 0.08149561
0.03251839 -0.69283885 0.08165735
0.11732075 -0.66476056 0.07963514
0.14342867 -0.72923845 0.08257926
0.1590237 -0.75761665 0.08110836
0.17964649 -0.79163554 0.08022982
0.1675759 -0.77560607 0.08367956
0.14136036 -0.71882945 0.08469066
0.1387406 -0.71220578 0.0841779
0.13474423 -0.70351289 0.0816336
0.11136563 -0.65137735 0.07963514
0.12855196 -0.69081664 0.07963514
0.08204488 -0.57871289 0.08165088
0.03022379 -0.10344561 0.08988297
0.03830519 -0.09698666 0.08873752
0.04968429 -0.08415711 0.08772397
0.06261298 -0.44235924 0.08216986
0.063326 -0.43399745 0.08570176
0.06598526 -0.42793083 0.08165735
0.06564391 -0.42388648 0.08168852
0.02315533 -0.11853445 0.08165735
0.06448632 -0.01995228 0.08257084
0.06448501 -0.03149426 0.0819665
-0.39668015 0.10592961 0.08187237
-0.27464433 -0.00428024 0.07963514
-0.36634348 0.10834587 0.08127195
-0.41577369 0.14435136 0.07963514
-0.40881336 0.12109604 0.07908317
-0.41466457 0.16457337 0.08012834
-0.41704449 0.13442619 0.08161063
-0.4132629 0.18277311 0.08367956
-0.34208077 0.12553334 0.08367956
-0.35839745 0.11282979 0.08172466
-0.18657595 -0.0093357 0.08367956
-0.18818848 0.01196267 0.08087079
-0.01054716 0.61546838 0.07958362
-0.00639582 0.60880941 0.08177203
-0.18907571 0.01695287 0.0807603
-0.19205418 0.02099729 0.07939112
-0.01927415 0.62184051 0.08398065
-0.02128839 0.62765682 0.08165735
-0.24521606 0.75303316 0.082142
-0.24481884 0.76112196 0.08165735
-0.02265722 0.63117787 0.08162007
-0.26188976 0.10166109 0.08165735
-0.24414147 0.78336614 0.08436057
-0.24108894 0.79145497 0.08296226
-0.23770139 0.79752147 0.08199137
0.06401938 0.00380853 0.08127625
0.06306881 0.02301943 0.07963514
0.06050211 0.0311082 0.08171788
0.09066975 0.01443726 0.07876527
0.08662534 0.02325082 0.08367956
0.09135908 0.03616372 0.08086419
0.08306646 0.03515261 0.07963514
0.06538855 0.04324144 0.07921149
0.06637201 0.05208299 0.08165735
0.0744921 0.0584079 0.08058706
0.08258092 0.04526365 0.0825789
0.07833204 0.05301136 0.07995367
0.08905387 0.04526365 0.07963514
0.09091294 0.01897508 0.08069766
0.0865891 0.0603735 0.079882
0.0843671 0.07458553 0.07963514
0.08224761 0.08469647 0.08165735
0.08416712 0.09278527 0.07963514
0.09807038 0.21338439 0.08974618
0.0839802 0.10997403 0.08367956
0.08717483 0.11599189 0.0796804
0.24402102 0.21715706 0.09068055
0.23508876 0.22917894 0.08281512
0.2348257 0.23737246 0.08040547
0.23946021 0.20955989 0.08318569
0.33535576 0.16561106 0.08266845
0.34546673 0.16348636 0.09176838
0.37227008 0.19700019 0.08565348
0.36051579 0.17493755 0.0840385
0.37507766 0.21917272 0.0872024
0.36039364 0.23925872 0.08451116
0.10266689 0.24900015 0.08941349
0.11737545 0.30156998 0.08250669
0.12763572 0.32651368 0.07952672
0.12909937 0.33241582 0.07963514
0.13057308 0.34354241 0.07963514
0.24688457 0.24647239 0.08460951
0.13065682 0.35162672 0.08369969
0.13284522 0.36578211 0.07963514
0.12881172 0.43150359 0.08165735
0.13392425 0.39156513 0.07963514
0.12419376 0.44869223 0.08266845
0.12124851 0.45880327 0.08715516
0.12264115 0.48003632 0.08612129
0.35132912 0.24576116 0.08207592
0.05114415 0.56713007 0.07983186
0.06787957 0.54804054 0.0852498
0.10684729 0.53024167 0.08346093
0.11493611 0.52831072 0.08064735
0.1108917 0.5323934 0.08049834
0.05035883 0.71865577 0.07963514
0.02689111 0.57577315 0.08777173
0.04310679 0.56699085 0.08433616
0.04801387 0.73483336 0.07963514
0.04684086 0.74276957 0.08405122
0.04164536 0.75073367 0.08065796
0.00371522 0.6009444 0.08367956
0.03449333 0.77325511 0.08772397
-0.09930766 -0.34148185 0.08813193
-0.0549286 -0.45624161 0.08280313
-0.05291158 -0.44539292 0.08873507
-0.26523721 -0.13457638 0.08459675
-0.07256429 -0.3936491 0.08779453
-0.07487033 -0.38646935 0.08830489
-0.27186448 -0.09907081 0.0860487
-0.26784998 -0.05154586 0.09270131
-0.27436018 -0.04118536 0.08474007
0.12076914 -0.84248155 0.08570176
0.09066975 -0.79696462 0.08539703
0.08691227 -0.79394883 0.08543131
-0.26172 -0.13507062 0.08570176
0.11141753 -0.8202374 0.08614743
0.10278034 -0.80614996 0.08495535
0.09875846 -0.79916206 0.08700019
0.24136648 -0.87685895 0.08672082
0.12580939 -0.85638422 0.08822952
0.22833671 -0.8424707 0.08690439
0.0826304 -0.78282669 0.08570176
0.07346888 -0.75774141 0.08371203
0.07044768 -0.75148261 0.08368492
0.06438118 -0.74265349 0.08367956
0.03873856 -0.69936731 0.08570176
0.15538013 -0.75825083 0.08772397
0.12162884 -0.68689652 0.08446707
0.14482039 -0.74737571 0.08780771
0.11517211 -0.67178776 0.08480416
0.13848835 -0.74339384 0.09379059
0.13869226 -0.73934948 0.09176838
0.11242923 -0.66106598 0.08364302
0.1765359 -0.79192662 0.08553767
0.13111365 -0.70245278 0.08396018
0.1619823 -0.76766026 0.08772397
0.10567781 -0.64407085 0.08367956
0.0860455 -0.59367398 0.08570176
0.05746551 -0.48657462 0.08447285
0.09325749 -0.60891762 0.08367956
0.05702233 -0.47039703 0.08570176
0.05917858 -0.45517781 0.08469066
0.04389414 -0.09064902 0.08974618
0.02137727 -0.11853913 0.08775614
0.05445848 -0.07416705 0.08997195
0.05693579 -0.06797951 0.08974618
0.05728532 -0.06191289 0.0916834
-0.40881336 0.10196175 0.08908205
0.06050887 -0.05382413 0.08654539
-0.3995984 0.09586556 0.08934101
-0.37929703 0.09406044 0.09057049
-0.26653862 0.01088625 0.09176838
-0.26958455 0.02017289 0.0847256
-0.36428778 0.10378242 0.08869645
-0.26466679 0.05155602 0.08570176
-0.39668015 0.08891666 0.0936591
-0.38555807 0.09611602 0.0875452
-0.41697884 0.11962505 0.08586381
-0.42065124 0.12514046 0.08729121
-0.42044224 0.14536245 0.08679469
-0.41657308 0.16154006 0.08367956
-0.41441295 0.17670649 0.08367956
-0.3380664 0.1302225 0.08367956
-0.33221667 0.13642111 0.08367956
-0.41182423 0.19047999 0.08816162
-0.41093199 0.19823325 0.09478804
-0.3501696 0.11806273 0.08451545
-0.18795726 0.02504158 0.08326674
-0.20052689 0.02908599 0.0849694
-0.19648248 0.02664906 0.08243364
-0.19243807 0.02504158 0.08197999
-0.18839371 0.02813506 0.08443552
-0.00918306 0.60941035 0.08360565
-0.01667973 0.61361268 0.09031396
-0.24571043 0.74898875 0.08367956
-0.02351391 0.63574564 0.08367956
-0.23514673 0.81169426 0.09174304
-0.2025491 0.83425331 0.08772397
-0.23915273 0.80358809 0.0887939
-0.19446027 0.83937564 0.08399048
0.05553152 -0.01934505 0.09376289
0.0532905 -0.0037747 0.0940198
-0.1864272 0.84918578 0.08873507
0.0901823 0.03717482 0.08367956
0.05680895 0.02504158 0.08570176
0.05915329 0.04324144 0.08444247
0.06027457 0.04961324 0.08561376
0.0906688 0.02504158 0.08356017
0.0707145 0.06401649 0.08364388
0.05486293 0.03919703 0.08788547
0.0744921 0.07024369 0.0842568
0.08537161 0.03515261 0.08367956
0.07872461 0.06801336 0.08383626
0.08155274 0.07357442 0.08275706
0.08543289 0.04121923 0.08367956
0.08692622 0.04324144 0.08312476
0.09225041 0.17468435 0.08570176
0.09292245 0.18277311 0.08772397
0.08599925 0.11581525 0.08421782
0.09479433 0.20264468 0.08974618
0.242091 0.23636135 0.08630776
0.25524166 0.19086194 0.08844255
0.35382682 0.16667937 0.0902248
0.37104434 0.22523934 0.08469066
0.36913045 0.17913261 0.08922791
0.36871144 0.18479532 0.08572558
0.11817136 0.31239888 0.08664485
0.12235352 0.32230484 0.08570176
0.12819624 0.33646023 0.08367956
0.12953132 0.34252685 0.08367956
0.13227093 0.36477101 0.08367956
0.12850988 0.42543697 0.08772397
0.11841094 0.49014735 0.09176838
0.12448663 0.44250335 0.08566262
0.11861551 0.5059123 0.08570176
0.13248923 0.37589312 0.08367956
0.13327819 0.39105958 0.08367956
0.13252985 0.41330373 0.08367956
0.2626254 0.255528 0.0865289
0.28075635 0.26446986 0.08772397
0.28314632 0.26793107 0.08367956
0.07853651 0.53895473 0.08791077
0.29086739 0.26795214 0.08570176
0.08767328 0.53166717 0.08829517
0.30906713 0.26744187 0.08367956
0.04821728 0.56102476 0.08568504
0.09269196 0.5285691 0.08839047
0.02090386 0.57883896 0.08984981
0.11496615 0.52053258 0.08471483
0.00994864 0.58736756 0.09205794
0.1111165 0.52402991 0.08543949
0.04849017 0.70854473 0.08367956
0.05119151 0.72270018 0.08367956
0.05129933 0.7287668 0.08367956
0.05029327 0.7370497 0.08367956
0.04635477 0.74989864 0.09008901
0.03806752 0.76106858 0.08367956
0.02900088 0.78538835 0.08367956
0.02252173 0.79752147 0.08367956
-0.00525075 -0.61902866 0.08635107
-0.00855131 -0.60762731 0.08798365
-0.07888414 -0.38088706 0.08511463
-0.01308599 -0.58847225 0.09107684
-0.01798561 -0.58175914 0.08572408
-0.07893071 -0.37130928 0.09130436
-0.02098639 -0.56847367 0.08990507
-0.07990192 -0.37535369 0.08526009
-0.02517104 -0.561396 0.08570176
-0.02810603 -0.55027387 0.08671287
-0.03369921 -0.53527032 0.08585668
-0.11249989 -0.28637695 0.08367956
-0.03809247 -0.52044644 0.08563548
-0.04683977 -0.49192834 0.08367956
-0.25310403 -0.13432038 0.08367956
-0.24905968 -0.13088369 0.08367956
-0.16008294 -0.1088464 0.08413851
0.12653732 -0.86674795 0.08513954
0.00607115 -0.64430612 0.08367956
0.00065866 -0.63419509 0.08576745
-0.00260013 -0.62632947 0.08792391
0.06640339 -0.53421962 0.08367956
0.06444306 -0.5319952 0.08873507
0.06007028 -0.5249964 0.0958128
0.05046034 -0.32113114 0.08367956
0.05674775 -0.41168299 0.08893144
0.05027255 -0.31224863 0.08291852
0.06235898 -0.41984206 0.08797181
0.04486375 -0.30371897 0.08671287
0.04355931 -0.29851013 0.08367956
0.03996992 -0.28637695 0.08367956
-0.26121518 0.10997403 0.08374631
-0.17589157 0.59870274 0.08900932
-0.16975009 0.60546385 0.08551848
-0.16196812 0.61360526 0.08637917
-0.15789121 0.61956799 0.08772397
0.09066975 0.13125706 0.08367956
0.09193814 0.14637351 0.08367956
0.09192324 0.15850675 0.08367956
0.26464033 0.18277311 0.08367956
-0.18839371 0.02099729 0.08245134
0.08258092 0.05537462 0.08278024
0.08662534 0.05133027 0.08182579
0.07853651 0.05739677 0.08180761
0.08258092 0.06144118 0.08260357
-0.05039504 -0.47646362 0.08367956
-0.11130098 -0.27828813 0.08869848
-0.136889 -0.16781786 0.09176838
-0.24433845 -0.12460107 0.08367956
-0.1125498 -0.26972505 0.08758616
-0.2408514 -0.11651224 0.08327299
-0.23797411 -0.10842347 0.08367956
-0.23604512 -0.1003347 0.08367956
-0.234712 -0.09224588 0.08367956
-0.23339558 -0.08415711 0.08458757
-0.12539747 -0.21422489 0.08811328
-0.15548158 -0.12460107 0.08367956
-0.23514652 -0.05180192 0.08367956
-0.23317021 -0.07606828 0.08411324
-0.23316619 -0.06797951 0.08405751
-0.23882568 -0.03562427 0.08367956
-0.23342007 -0.05989069 0.08432394
-0.24144235 -0.02281886 0.08354104
0.14097011 -0.95774686 0.08367956
0.14707875 -0.9496581 0.08367956
0.15538013 -0.94757509 0.08367956
0.17155766 -0.95385683 0.08367956
0.16346884 -0.9496581 0.0816834
-0.1843493 -0.02702689 0.08335024
0.17192459 -0.95774686 0.08311981
0.16427916 -0.92539173 0.08399034
0.17964649 -0.92550087 0.08367956
0.15402287 -0.96600795 0.08367956
0.1472913 -0.96466041 0.08367956
0.1472913 -0.91976523 0.08367956
0.16346884 -0.96536863 0.08367956
0.14422774 -0.91730291 0.08367956
0.15538013 -0.92348206 0.08367956
0.17155766 -0.96063703 0.08367956
0.13920248 -0.91043639 0.08367956
0.13920248 -0.90921414 0.08587062
0.13317478 -0.88494778 0.09176838
0.18622345 -0.79704195 0.08367956
0.19582403 -0.92099953 0.08367956
0.21587312 -0.82832617 0.08367956
0.21200168 -0.8202374 0.08707118
0.20391285 -0.81186694 0.08297819
0.22009039 -0.90561509 0.08367956
0.19607842 -0.8038446 0.08367956
0.05283314 -0.39860897 0.08772397
0.03744239 -0.27424374 0.08367956
0.05036485 -0.39153129 0.09176838
0.05203229 -0.38546467 0.08772397
0.03524542 -0.26211059 0.08367956
0.05633914 -0.36726487 0.08367956
0.03490424 -0.25402176 0.08367956
0.03412151 -0.245933 0.08466375
0.02511883 -0.19335583 0.09340179
0.02153873 -0.15291184 0.08367956
0.02064764 -0.13268983 0.08367956
-0.32741928 0.14232922 0.08367956
-0.40274674 0.2151283 0.08767092
-0.39919513 0.22321713 0.08367956
-0.314969 0.15850675 0.08367956
-0.3925226 0.24343908 0.08367956
-0.29820302 0.19234663 0.08367956
-0.30924866 0.16659558 0.08772397
-0.29143077 0.20703948 0.08367956
-0.30425453 0.17468429 0.09176838
-0.24212182 -0.0113579 0.08512706
-0.24097085 -0.0032692 0.08772862
-0.24184382 0.00481963 0.08470744
-0.24097085 0.00877225 0.08367956
-0.23850173 0.01290846 0.08367956
-0.23288208 0.02099729 0.08135331
-0.22946972 0.02099729 0.08367956
-0.22479326 0.02229726 0.08367956
-0.21670449 0.02394903 0.08367956
-0.26000005 0.11806273 0.08367956
-0.20861566 0.02588534 0.08367956
-0.25889719 0.12615156 0.08367956
-0.25863224 0.13424039 0.08367956
-0.25748765 0.14437938 0.08367956
-0.2497198 0.17468429 0.08367956
-0.24444878 0.19895077 0.08367956
-0.2549625 0.15850675 0.08367956
-0.25283504 0.16659558 0.08367956
-0.24080139 0.21389246 0.08367956
-0.24047515 0.22321713 0.08483607
-0.23768511 0.23535031 0.08367956
-0.36619085 0.31219387 0.08367956
-0.36215726 0.32774705 0.08367956
-0.38349921 0.27174985 0.08367956
-0.35959041 0.33646023 0.08367956
-0.35396564 0.35263783 0.08367956
-0.37803435 0.28792751 0.08367956
-0.37399465 0.29601622 0.08367956
-0.3700431 0.30342871 0.08367956
-0.23645526 0.24748349 0.08367956
-0.23645884 0.25557232 0.08367956
-0.2657347 0.26454359 0.09176838
-0.27441716 0.24748349 0.08367956
-0.26069367 0.27174985 0.08367956
-0.23737466 0.26366103 0.08367956
-0.23921061 0.27174985 0.08367956
-0.25714844 0.27594638 0.08367956
-0.25457388 0.27983868 0.08367956
-0.24905968 0.28792751 0.08202684
-0.24123725 0.27911937 0.08367956
-0.30540165 0.53029484 0.08367956
-0.29704669 0.53819823 0.08367956
-0.32395232 0.49823618 0.08367956
-0.28806341 0.54557335 0.08367956
-0.32184309 0.50632489 0.08367956
-0.27799435 0.55323291 0.08367956
-0.31944549 0.51441371 0.08367956
-0.31377 0.5218581 0.08367956
-0.26523721 0.56209028 0.08367956
-0.25714844 0.56621408 0.08367956
-0.24855107 0.57080644 0.08184445
-0.24097085 0.57346821 0.08367956
-0.23288208 0.5767132 0.08367956
-0.20052689 0.69170046 0.08367956
-0.22567913 0.57940596 0.08367956
-0.20861566 0.58391356 0.08367956
-0.17788291 0.66810083 0.08367956
-0.16008294 0.63521963 0.08427399
-0.20052689 0.58162951 0.09176838
-0.19243807 0.5898267 0.08367956
-0.02257335 0.63994241 0.08367956
-0.18388882 0.67678148 0.08367956
-0.01858866 0.64383447 0.09176838
-0.19161865 0.68503654 0.08367956
-0.01448464 0.64857793 0.08367956
-0.00729418 0.65232784 0.08367956
-0.23121893 0.71663356 0.08367956
-0.23696411 0.72472239 0.08367956
-0.22399014 0.70854473 0.09176838
-0.21102795 0.69873136 0.08367956
-0.17735249 0.86223185 0.09176838
-0.24097085 0.73271644 0.08351928
-0.24389088 0.74089992 0.08367956
-0.16629297 0.8784095 0.08367956
-0.00731575 0.85009867 0.08367956
0.08960664 0.12615156 0.08367956
-0.03909129 0.88622165 0.08367956
-0.01539272 0.86095405 0.08367956
-0.02257335 0.8704015 0.08421606
-0.0303418 0.87870824 0.08367956
0.28480077 0.17062604 0.08367956
0.27671194 0.17468429 0.08229411
0.30097842 0.16577327 0.08367956
0.2928896 0.16757596 0.08367956
-0.14280692 0.90193057 0.08367956
0.30906713 0.16495001 0.08367956
0.31715596 0.16486776 0.08367956
-0.13581651 0.90614855 0.08367956
0.32524478 0.16189337 0.09176838
-0.12772775 0.90985119 0.08367956
0.26862323 0.17944646 0.08367956
-0.11963892 0.91270781 0.08367956
-0.11155015 0.9141233 0.08367956
-0.10346133 0.91459322 0.08367956
-0.09537256 0.91354334 0.08367956
-0.08323938 0.91134137 0.08367956
-0.0711062 0.90869701 0.08367956
-0.05722302 0.90092492 0.08367956
0.31715596 0.26581252 0.08367956
-0.06301737 0.90510929 0.08367956
0.34142232 0.25546765 0.0843271
0.33333361 0.26073003 0.08367956
0.32549277 0.26373941 0.08464223
-0.00739789 0.65192318 0.09176838
0.0095101 0.6601581 0.08367956
0.03270787 0.6777463 0.08367956
0.03774893 0.68427837 0.08367956
0.04285896 0.6923672 0.08367956
0.04667246 0.70045602 0.08367956
0.01592225 0.80965471 0.08367956
0.0049119 0.82987666 0.08367956
0.00109237 0.83696479 0.08367956
0.03281295 -0.23784417 0.08367956
0.02888811 -0.22166657 0.08367956
0.02595937 -0.20156968 0.09176838
-0.28902391 0.2136305 0.08367956
-0.28642756 0.22321713 0.08367956
-0.28141481 0.23381138 0.08367956
-0.34591913 0.37629241 0.08367956
-0.34329867 0.38499296 0.08367956
-0.34145713 0.39308178 0.08367956
-0.337773 0.41391638 0.08367956
-0.33009446 0.46588099 0.08137947
-0.32773474 0.47801411 0.08367956
-0.24097085 -0.03966868 0.08041602
0.15538013 -0.96583569 0.08014178
-0.33495927 0.4335258 0.08367956
-0.33276886 0.44970334 0.08367956
0.02595937 -0.21357781 0.07983768
-0.05206311 -0.45624161 0.08772397
-0.06065498 -0.41692869 0.08974618
-0.0668529 -0.40328494 0.08974618
-0.0287029 -0.54031542 0.09379059
-0.08413401 -0.36429062 0.08981171
-0.03835142 -0.5067372 0.0915063
-0.04683977 -0.48503041 0.08793408
-0.09025081 -0.35053253 0.09325873
-0.11267048 -0.30255455 0.08772397
-0.11088521 -0.2909269 0.09131936
-0.11158435 -0.30862114 0.08873507
-0.10724545 -0.31873214 0.09176838
-0.26233068 -0.11954555 0.09350725
-0.27013595 -0.08213488 0.08870343
-0.25714844 -0.13336581 0.08772397
-0.25310403 -0.13235074 0.08772397
-0.24905968 -0.12885672 0.08854991
-0.16359779 -0.09224588 0.0903433
-0.16724731 -0.07603084 0.09354247
0.12137888 -0.83459064 0.0917736
0.10690245 -0.80788961 0.08767453
0.10444778 -0.79984421 0.08969066
0.23461482 -0.85041836 0.08974618
0.22009039 -0.83187944 0.08772397
0.23748782 -0.89203998 0.09176838
0.08593798 -0.78788221 0.08846146
0.08268827 -0.77083871 0.08760697
0.24735454 -0.86881097 0.09829951
0.07965937 -0.75905821 0.08827958
0.0479634 -0.71229115 0.08772397
0.08087505 -0.75350481 0.08968556
0.0744921 -0.7471256 0.08762336
0.06842554 -0.74050361 0.08731845
0.02344141 -0.66859889 0.08974618
0.05831456 -0.72817177 0.08772397
0.05427015 -0.71932113 0.08974618
0.03323644 -0.6854702 0.08974618
0.1209316 -0.6937408 0.0874007
0.11338283 -0.68279558 0.08847118
0.16497985 -0.78102215 0.09075728
0.15673554 -0.76361585 0.09176838
0.10836394 -0.66970272 0.08883466
0.17251682 -0.78788221 0.08772397
0.16798353 -0.78739309 0.09265471
0.17964649 -0.79587471 0.09176838
0.1383518 -0.73530507 0.09176838
0.13964117 -0.72317183 0.08974618
0.01199482 -0.6450167 0.09379059
0.13046581 -0.7069943 0.08726275
0.13515806 -0.71306086 0.08898705
0.1048357 -0.65290597 0.0878538
0.09722921 -0.6352062 0.08928831
0.09624653 -0.62596705 0.08757747
0.08960772 -0.60629691 0.08772397
0.07645124 -0.57189703 0.08768576
0.0676167 -0.54926276 0.09176838
0.05670065 -0.50309129 0.09015289
0.05179012 -0.47241922 0.09331109
0.05430043 -0.490619 0.08974618
0.04996087 -0.47949693 0.09445798
0.04738609 -0.31550773 0.0913637
0.04679523 -0.31087831 0.08964513
0.05859968 -0.44479752 0.08991104
0.06214929 -0.42388648 0.09132248
0.04770052 -0.32884312 0.0958128
0.0236153 -0.11044568 0.08974618
0.05761436 -0.04194368 0.09207408
0.058722 -0.02349114 0.08974618
-0.41302451 0.1080856 0.08843928
-0.40683017 0.09479037 0.09243405
-0.26570735 0.023525 0.09075728
-0.42762977 0.12615156 0.0958128
-0.37041435 0.09830391 0.09074609
-0.42029466 0.15529081 0.08957867
-0.41892433 0.16659558 0.09244967
-0.41703475 0.17468429 0.09176838
-0.35758403 0.10762538 0.0909266
-0.18416475 -0.01338011 0.09032503
-0.25928378 0.10795182 0.08772397
-0.18296432 0.02099729 0.0958128
-0.18646726 0.02706379 0.08772397
-0.19746321 0.03426012 0.08811098
-0.19243807 0.03717482 0.08884156
-0.18824461 0.03539088 0.08870244
-0.25950176 0.0675078 0.09176838
-0.02282512 0.61934534 0.0915648
-0.02346516 0.62765682 0.08772397
-0.00639582 0.60019946 0.08855397
-0.00852966 0.60339046 0.08772397
-0.22277108 0.82384968 0.09429614
-0.21274186 0.83085095 0.09480169
-0.24855374 0.79044387 0.09480169
-0.2434009 0.79549932 0.08873507
0.05258611 0.0311082 0.08996859
0.05421889 0.04526365 0.08974618
0.06234631 0.05836225 0.08873507
0.08203328 0.11116058 0.08772397
0.06652701 0.06502873 0.08772397
0.06769294 0.07458553 0.088312
0.08871758 0.13221818 0.09176838
0.08936596 0.1382848 0.09176838
0.07044768 0.08018756 0.08788317
0.07771057 0.0836854 0.08688802
0.07853651 0.09053624 0.08772397
0.09082425 0.16659558 0.08819413
0.2538812 0.19697696 0.09196034
0.25105929 0.20395289 0.09271502
0.24606255 0.20937456 0.08989806
0.24663071 0.22321713 0.09319611
0.24183147 0.22926177 0.08837672
0.09914212 0.23683832 0.09681059
0.25401935 0.23776089 0.09339309
0.33333361 0.16233867 0.09112906
0.37104343 0.17423481 0.09481877
0.37760699 0.2131061 0.08974618
0.26053441 0.18474388 0.08772397
0.26501876 0.18291301 0.08772397
0.37484632 0.2312749 0.09287009
0.10907394 0.27781647 0.09176838
0.11421375 0.30600518 0.08976918
0.11086604 0.28186089 0.09015134
0.12741321 0.34346414 0.08772397
0.12909627 0.35061562 0.08772397
0.11823681 0.45591238 0.09279919
0.1301631 0.3617377 0.08720678
0.1277446 0.36866203 0.09016469
0.12856868 0.37842087 0.0892992
0.25780116 0.2495057 0.08855665
0.13119197 0.39244887 0.08770223
0.12983604 0.40744808 0.08967391
0.28480077 0.26308548 0.09108722
0.30906713 0.26605129 0.08772397
0.35901967 0.2431044 0.08984317
0.11496668 0.50714959 0.0906803
0.34951115 0.25318825 0.09985721
0.34951115 0.25072181 0.09176838
0.05224794 0.55136147 0.08940879
0.00573742 0.59328663 0.08978841
0.05007303 0.71865577 0.08772397
0.05103874 0.7297779 0.08772397
-0.00253451 0.59668791 0.08974618
0.04877913 0.74089992 0.08772397
0.00169301 0.59604493 0.0893566
0.04338926 0.75909978 0.09176838
0.0400247 0.76314414 0.08974618
0.03232789 0.77932173 0.08772397
0.08662534 0.03717482 0.08441114
-0.05011141 -0.44815284 0.09176838
-0.00820018 -0.60056595 0.09379059
-0.0539175 -0.4248035 0.09480169
-0.01773706 -0.57251804 0.09482382
-0.0211978 -0.561396 0.0958128
-0.06112871 -0.40811467 0.09379059
-0.07158571 -0.38512965 0.0958128
-0.07753444 -0.37535369 0.09176838
-0.03285277 -0.52297419 0.0958128
-0.09584239 -0.3409763 0.09379059
-0.04569304 -0.48050803 0.09176838
-0.26367985 -0.10922407 0.09377648
-0.26529175 -0.09123477 0.09379059
-0.26914346 -0.03360212 0.09132688
-0.26725942 -0.01691897 0.09289901
-0.25714844 -0.1290305 0.09207225
-0.26119286 -0.12620705 0.09242505
-0.25310403 -0.12674999 0.0940325
-0.25000775 -0.12826145 0.09176838
-0.16332688 -0.08338341 0.09699135
0.11588284 -0.81926617 0.09177989
0.1050868 -0.79582599 0.09243339
0.1110637 -0.80648327 0.09162213
0.22953498 -0.90131599 0.09328556
0.23528695 -0.84609327 0.0958128
0.24462675 -0.88863555 0.10119932
0.23100084 -0.84045935 0.09434664
0.22817922 -0.83302844 0.09985721
