0.26136267 -0.93338686 0.01835334
0.26930344 -0.93927222 0.02629411
0.20577729 -0.90663898 0.01835334
0.19206518 -0.89639267 0.01835334
0.1871314 -0.89061755 0.01835334
0.19783652 -0.90153873 0.01835334
0.18229735 -0.88178191 0.01835334
0.18040955 -0.87473601 0.01835334
0.17978191 -0.86679524 0.01835334
0.17940629 -0.8509137 0.01835334
0.17698836 -0.84297293 0.01835334
0.17650938 -0.83503217 0.01835334
0.17792964 -0.8270914 0.01835334
0.18177497 -0.80326915 0.01835334
0.18124831 -0.79532838 0.01835334
0.30106652 -0.95022368 0.01835334
0.30900729 -0.95093012 0.01835334
0.3945834 -0.85985747 0.01835334
0.29219842 -0.79604834 0.01835334
0.30106652 -0.80269414 0.01672506
0.33282959 -0.81961808 0.0196985
0.32091844 -0.81325667 0.01819876
0.30900729 -0.8066597 0.01835334
0.34871113 -0.83119237 0.01835334
0.34077036 -0.82547891 0.01835334
0.3566519 -0.83700836 0.01835334
0.36485493 -0.84279965 0.01766032
0.37253344 -0.84704196 0.01835334
0.38841498 -0.85638767 0.01835334
0.40429652 -0.91729766 0.01835334
0.41223729 -0.91357017 0.01835334
0.42017806 -0.90885186 0.01835334
0.42017806 -0.87756991 0.01835334
0.41223729 -0.87105352 0.01835334
0.40429652 -0.86566365 0.01835334
0.140329 -0.69209838 0.01835334
0.13798928 -0.67026126 0.01835334
0.17253399 -0.76542604 0.01835334
0.18044055 -0.78738761 0.01835334
0.17986262 -0.77944684 0.01835334
0.1768024 -0.77150607 0.01835334
0.1577599 -0.74819198 0.01835334
0.16396499 -0.75562453 0.01835334
0.15245605 -0.73974299 0.01835334
0.14963686 -0.73322853 0.01835334
0.26979548 -0.77073383 0.01835334
0.2654599 -0.7635653 0.01835334
0.26136267 -0.75610739 0.01874113
0.25751388 -0.74768376 0.01835334
0.25541782 -0.73974299 0.01835334
0.25376064 -0.73180223 0.01786226
0.14645398 -0.72386146 0.01835334
0.14370903 -0.7119503 0.0188958
0.24548113 -0.67644602 0.01835334
0.24305725 -0.66827607 0.01835334
0.13565248 -0.64842415 0.01835334
0.13431048 -0.63280103 0.01715001
0.13285708 -0.62063146 0.01575071
0.12636971 -0.60474992 0.02025867
0.12636971 -0.60164738 0.01835334
0.11842895 -0.58886838 0.02070439
0.11751294 -0.58314514 0.01835334
0.1055274 -0.54122382 0.01835334
0.2386111 -0.65239453 0.01835334
0.23430574 -0.63651299 0.01835334
0.24024343 -0.6603353 0.01835334
0.23275781 -0.62857223 0.01835334
0.23021722 -0.61707166 0.01835334
0.2277807 -0.60474992 0.01835334
0.22023308 -0.5729869 0.01835334
0.2187587 -0.56504613 0.01835334
0.2183367 -0.55710536 0.01835334
0.21826208 -0.54916459 0.01835334
0.21658105 -0.53725344 0.01835334
0.28403366 -0.78856212 0.01835334
0.27661806 -0.7802316 0.01835334
0.10254741 -0.52767837 0.01835334
0.09919512 -0.50946075 0.01835334
0.09744579 -0.49754959 0.01835334
0.09552294 -0.48166806 0.01835334
0.09328163 -0.46578652 0.01835334
0.08706141 -0.44593465 0.02629411
0.08666587 -0.44103998 0.02629411
0.08666587 -0.43005311 0.02376533
0.08776629 -0.41814196 0.01835334
0.21457648 -0.52534229 0.01835334
0.21343696 -0.50946075 0.01835334
0.21296775 -0.50151998 0.01998633
0.21016377 -0.48960882 0.01835334
0.20844543 -0.47769767 0.01835334
0.20770073 -0.4697569 0.01835334
0.21294999 -0.42211235 0.01835334
0.21146214 -0.41417158 0.01835334
0.07796741 -0.35858619 0.01835334
0.07438374 -0.34667504 0.01835334
0.08666587 -0.40623081 0.01740658
0.08532584 -0.39829004 0.01835334
0.08333594 -0.38637888 0.01835334
0.08141816 -0.37446773 0.01835334
0.07078433 -0.33476388 0.02006257
0.20491374 -0.39034927 0.01835334
0.20358503 -0.3824085 0.01835334
0.20941377 -0.40623081 0.01835334
0.20577729 -0.28752244 0.01835334
0.20188743 -0.27520818 0.01835334
0.19783652 -0.26321891 0.01827097
0.19380456 -0.25138587 0.01835334
0.18813011 -0.23579992 0.01835334
0.1819551 -0.21960145 0.01835334
0.17401433 -0.19977087 0.0214808
0.17844927 -0.21168202 0.01835334
0.16885698 -0.18388933 0.02629411
0.16576892 -0.17594856 0.02061146
0.15938193 -0.15810812 0.02232373
0.13450751 -0.03384668 0.01909149
0.15691483 -0.15212625 0.02629411
-0.09144792 0.12977099 0.01835334
-0.08539969 0.15359318 0.01835334
-0.08310682 0.16153395 0.02629411
-0.08072501 0.29652703 0.01835334
-0.08551919 0.31836414 0.01835334
-0.0879128 0.33226049 0.01835334
-0.10482752 0.3799051 0.01835334
-0.10772377 0.38784587 0.01835334
-0.10942805 0.39578664 0.01835334
-0.10830837 0.40372741 0.01835334
-0.10603964 0.41166818 0.01835334
-0.08523563 0.60880744 0.01835334
-0.07214946 0.61558485 0.01835334
-0.06680983 0.61812806 0.01835334
-0.05626798 0.62273693 0.01835334
-0.03244567 0.6340096 0.01953149
-0.0245049 0.63932323 0.01835334
-0.01656413 0.64412868 0.01835334
-0.00849038 0.6496734 0.02629411
-0.00635827 0.65783191 0.01835334
-0.00594795 0.66577268 0.01835334
-0.01650187 0.68970704 0.01835334
-0.00834948 0.67438745 0.01835334
-0.01217687 0.68165421 0.01835334
-0.0245049 0.7027154 0.01835334
-0.03219649 0.7138356 0.01835334
-0.03644925 0.72135806 0.01835334
-0.04036124 0.72934622 0.01862735
-0.04819296 0.74546567 0.01985168
-0.05205703 0.75312114 0.01835334
-0.05708659 0.7669996 0.01835334
-0.0614022 0.77694345 0.01835334
-0.04479247 0.7372396 0.01835334
-0.06463775 0.80985129 0.02430892
-0.06388164 0.81664717 0.01835334
-0.06290251 0.82458794 0.01835334
-0.06062514 0.83252871 0.01835334
-0.05673671 0.84135413 0.01835334
-0.05250329 0.84841025 0.01835334
-0.04731014 0.85514814 0.01835334
-0.03984638 0.86264542 0.02232373
-0.01782511 0.88041681 0.03224969
-0.00862336 0.88620281 0.02232373
0.00725818 0.88995439 0.0282793
0.01519895 0.8910172 0.02232373
0.13779652 -0.01713324 0.02629411
0.13887525 -0.0012517 0.02629411
0.13859415 0.00668907 0.02629411
0.13930917 0.02654099 0.01835334
0.16326702 0.12580061 0.01835334
0.16548359 0.13374138 0.01835334
0.1730873 0.16550434 0.02276823
0.17577302 0.18138587 0.01835334
0.17665523 0.19329703 0.01835334
0.17777514 0.20520818 0.01835334
0.17401433 0.23009014 0.01835334
0.1731317 0.23697126 0.01835334
0.17401433 0.24888241 0.01699418
0.17582154 0.22108972 0.01835334
0.17410621 0.25909865 0.01860645
0.17532873 0.26873434 0.01835334
0.17666996 0.27667511 0.01835334
0.17764544 0.28461587 0.01835334
0.17802584 0.29255664 0.01835334
0.17781651 0.30049741 0.01835334
0.17629522 0.32034934 0.01835334
0.29312575 0.26079357 0.01895094
0.30106652 0.2567476 0.01835334
0.28858155 0.26873434 0.02232373
0.28518498 0.26873434 0.01571417
0.28518498 0.27667511 0.01968288
0.28448653 0.28461587 0.01999402
0.30900729 0.25847018 0.02629411
0.32488883 0.25977266 0.01835334
0.33282959 0.26470733 0.01835334
0.3371762 0.26873434 0.01835334
0.34077036 0.27299762 0.01835334
0.34332538 0.27667511 0.01835334
0.34733629 0.28461587 0.01835334
0.28518498 0.29255664 0.019171
0.28788424 0.30049741 0.01835334
0.29312575 0.30843818 0.02286685
0.30870217 0.32451332 0.01835334
0.31694806 0.32841682 0.01835334
0.33282959 0.32816291 0.01835334
0.35101336 0.30049741 0.02232373
0.34994678 0.30845898 0.02231434
0.34553826 0.31637895 0.01835334
0.34077036 0.32518899 0.02436
0.10638344 0.61812806 0.01835334
0.10615075 0.62606883 0.01835334
0.10762858 0.64592075 0.01835334
0.10913458 0.66974306 0.02033854
0.11052556 0.68222465 0.02336416
0.1117661 0.68959498 0.02629411
0.11379087 0.69753575 0.01835334
0.11510158 0.70547652 0.01835334
0.11558402 0.71341729 0.01835334
0.1155591 0.72135806 0.01835334
0.11606765 0.72929883 0.01835334
0.11723751 0.7372396 0.02232373
0.11841202 0.74518037 0.0253132
0.11887491 0.75312114 0.01835334
0.11820701 0.76522061 0.01835334
0.11827403 0.77694345 0.01957482
0.11834657 0.78488421 0.01835334
0.11686242 0.79679537 0.01835334
0.11536431 0.80870652 0.02232373
0.11337435 0.81664717 0.01835334
0.11107063 0.82458794 0.01835334
0.10356867 0.84261239 0.01835334
0.10109681 0.84841025 0.02232373
0.09524357 0.85713166 0.01835334
0.05490279 0.88389921 0.02629411
0.06316352 0.88017333 0.02752042
0.03902125 0.88958073 0.01835334
0.08666587 0.86613977 0.01835334
0.13920164 -0.11242247 0.01835334
0.13408485 -0.09942983 0.01835334
0.13047099 -0.08860016 0.01835334
0.36459267 -0.95929155 0.02430892
0.37451863 -0.95735869 0.02232373
-0.2949371 0.30049741 0.0221864
0.38637924 -0.95406316 0.02458547
-0.28952795 0.29979399 0.02136621
-0.28655016 0.29468626 0.0235391
0.38841498 -0.95017332 0.02386904
-0.28257978 0.29564503 0.02323084
0.38974681 -0.94605689 0.02430892
-0.26857917 0.29484275 0.02629411
0.38959487 -0.93331381 0.02492099
-0.30044651 0.30488655 0.02359
-0.29830234 0.31099135 0.02242997
0.38729513 -0.9303214 0.02232373
-0.29297878 0.31935674 0.02112761
0.38841498 -0.92675737 0.02183068
0.39661181 -0.92238063 0.02629411
-0.25875747 0.29960227 0.02583754
0.20279324 -0.36652696 0.02232373
-0.2517052 0.3062633 0.02312782
0.20321423 -0.36057138 0.02430892
0.20562997 -0.34992936 0.02248976
-0.28911752 0.33176951 0.02246327
0.21303433 -0.33476388 0.02332729
-0.28101262 0.35016333 0.02233547
0.12636971 -0.05177212 0.02629411
0.12636971 -0.0465014 0.02232373
0.13031685 -0.04095554 0.02199209
-0.26517127 0.38086045 0.02236143
-0.27437289 0.36401287 0.02220161
-0.25386196 0.40054074 0.02232373
-0.24646972 0.41244149 0.02232373
-0.22146514 0.33460099 0.02232373
-0.23058331 0.43549049 0.02232373
-0.20660489 0.34530237 0.0242842
-0.22888879 0.32533576 0.02336643
-0.18963429 0.36704166 0.02217965
-0.16405439 0.39091419 0.02510719
-0.21100664 0.45917016 0.02232373
-0.11979407 0.42854595 0.02629411
-0.20841531 0.464711 0.02430892
-0.20244522 0.47472511 0.02430892
-0.1129424 0.43041253 0.02232373
-0.11582369 0.43107915 0.0247665
-0.10721171 0.41960895 0.02232373
-0.17740631 0.52482402 0.02629411
-0.18714068 0.50235215 0.02247903
-0.17175353 0.53380293 0.02430892
-0.17044961 0.53872037 0.02629411
-0.16195307 0.55369437 0.02648278
-0.18039617 0.51688325 0.02430892
-0.1568148 0.56103817 0.02430892
-0.11979407 0.59473896 0.02629411
0.13512743 0.06878763 0.03238471
0.14547874 0.08361527 0.02855109
0.1515255 0.09006715 0.02629411
0.15581369 0.09403753 0.02232373
0.15498859 0.10038069 0.02728671
0.15706979 0.10508277 0.02530152
0.17348999 0.34814203 0.02509314
0.18926203 0.39975703 0.02430892
0.18958053 0.43063684 0.02347136
0.10618418 0.57020378 0.02232373
0.11644375 0.5893364 0.02232373
0.11048818 0.56918776 0.02232373
0.11066222 0.59037578 0.02240476
0.11499745 0.57048345 0.02189213
0.12636971 0.58324361 0.02695757
0.10452831 0.57445383 0.02232373
0.10651779 0.5772444 0.02232373
0.11048818 0.57445383 0.01993036
0.10651779 0.59430575 0.02434897
0.11587417 0.57445383 0.02232373
0.11445856 0.57717043 0.02341151
0.15375849 0.51220571 0.03199823
-0.29250574 0.3044678 0.02038175
-0.29250574 0.30843818 0.01970673
-0.29449093 0.31240857 0.02044284
0.11048818 0.57048345 0.02010262
0.10651779 0.57445383 0.02091432
0.38444459 -0.95827168 0.0282793
0.39161992 -0.92635101 0.02726698
0.20503888 -0.36652696 0.02811861
0.2060349 -0.35461581 0.02600259
0.20956153 -0.35028681 0.02629411
0.21320891 -0.3407242 0.02629411
0.12972116 -0.04095554 0.02629411
-0.30315024 0.30049741 0.02584207
-0.30691233 0.3044678 0.02873704
-0.30321866 0.30843818 0.02561235
-0.30254181 0.31297976 0.026191
-0.29449093 0.28376955 0.02988434
-0.30044651 0.29367782 0.02711982
-0.29052055 0.28660107 0.02767152
-0.28257978 0.28892845 0.02643937
-0.24829073 0.29962081 0.0267579
-0.24089074 0.30785474 0.02502565
-0.29449093 0.32923573 0.02587855
-0.28193331 0.35828808 0.02629411
-0.27713279 0.3670406 0.02629411
-0.26664711 0.38437683 0.02629411
-0.25372905 0.4057126 0.02629411
-0.24589749 0.41737218 0.02629411
-0.23241673 0.31268095 0.02695237
-0.22321391 0.32456446 0.02652663
-0.21715881 0.33170895 0.02630018
-0.19586622 0.35505687 0.02629411
-0.18180842 0.36727118 0.0302645
-0.17460567 0.37876212 0.02695083
-0.13990849 0.4083575 0.02805784
-0.23237257 0.43648309 0.02629411
-0.21477659 0.45785034 0.02629411
-0.12972003 0.41387311 0.03046623
-0.1118533 0.42773843 0.02629411
-0.11000758 0.42357934 0.0282793
-0.19575179 0.49306095 0.0302645
-0.18622154 0.50861266 0.02728671
-0.17655736 0.5307796 0.03423488
-0.16542232 0.54666114 0.02629411
-0.14758676 0.57445383 0.02812672
-0.13567561 0.58790708 0.03423488
-0.12933359 0.5920765 0.03402451
-0.11451995 0.59763414 0.02629411
0.1338914 0.04837811 0.02898429
0.13438183 0.05631888 0.0282793
0.14026606 0.07662874 0.02988689
0.1580593 0.12215114 0.0302645
0.18413065 0.39242999 0.0282793
0.1906876 0.40968299 0.02629411
0.19013238 0.42130908 0.02624732
0.18391254 0.43892156 0.02712133
0.17617442 0.45236742 0.03015588
0.10632867 0.57034951 0.02629411
0.11048818 0.56917942 0.02629411
0.11435372 0.57056993 0.02490878
0.1426436 0.55162972 0.02799219
0.13889775 0.56026483 0.02629411
0.10226756 0.57396424 0.02629411
0.10234338 0.57869142 0.02629411
0.1073367 0.58192122 0.02629411
0.11287475 0.5823946 0.02653497
0.11048818 0.58657819 0.02635348
0.10785913 0.59033537 0.02629411
0.11623514 0.57445383 0.02629411
0.11682332 0.57842422 0.02629411
0.11842895 0.58618188 0.02629411
0.12239933 0.58597636 0.02629411
0.13025001 0.57492554 0.0282793
0.16363828 0.48745629 0.02921778
0.15108379 0.52904779 0.03030735
0.15027709 0.53958169 0.02725053
0.14472406 0.54462637 0.03044039
0.16065264 0.12977099 0.0282793
0.17374635 0.27667511 0.02567881
0.17240977 0.29255664 0.03423488
0.17266762 0.30049741 0.03423488
0.17408489 0.31439376 0.02748397
-0.1068117 0.41166818 0.0282793
0.25061041 -0.93133396 0.02629411
0.23754036 -0.92614198 0.02629411
0.26136267 -0.93546313 0.02629411
0.19856232 -0.90649909 0.02696514
0.18886292 -0.89954236 0.02629411
0.1819551 -0.89061755 0.02640808
0.17835236 -0.88267678 0.02629411
0.17645812 -0.87473601 0.02629411
0.17591321 -0.86679524 0.02629411
0.17605436 -0.85885447 0.02629411
0.17598844 -0.8509137 0.02629411
0.17587638 -0.84297293 0.02629411
0.17645192 -0.83503217 0.02629411
0.17785585 -0.8270914 0.02629411
0.17986143 -0.81915063 0.02629411
0.18164825 -0.81120992 0.02802348
0.1819551 -0.80094266 0.02629411
0.33026838 -0.95414364 0.02629411
0.29312575 -0.94950455 0.02629411
0.27724421 -0.94316578 0.02629411
0.30106652 -0.95143187 0.02629411
0.30900729 -0.95189387 0.02629411
0.32488883 -0.95472437 0.03245258
0.34871113 -0.95838612 0.02629411
0.3566519 -0.95966768 0.02629411
0.39473528 -0.86011183 0.02629411
0.30106652 -0.80068552 0.02629411
0.29353189 -0.79482174 0.02629411
0.32488883 -0.81377053 0.02629411
0.3184163 -0.81032157 0.02629411
0.33499181 -0.81915063 0.02629411
0.30900729 -0.80404252 0.02629411
0.34707618 -0.82818529 0.02629411
0.36459267 -0.83994615 0.02629411
0.3586086 -0.83503217 0.02629411
0.37051183 -0.844262 0.02629411
0.38047421 -0.85073388 0.02629411
0.38841498 -0.85502243 0.02629411
0.34077036 -0.82295173 0.02629411
0.41254389 -0.91463263 0.02459079
0.42017806 -0.90936899 0.02629411
0.42255998 -0.90649909 0.02629411
0.42617333 -0.89855832 0.02629411
0.42617404 -0.89061755 0.02629411
0.42225635 -0.88267678 0.02629411
0.42017806 -0.88029599 0.02629411
0.41258678 -0.8744555 0.02744615
0.40403628 -0.86698881 0.02558827
0.14208025 -0.71592069 0.02552855
0.13988674 -0.70797992 0.02629411
0.13795817 -0.70003915 0.02629411
0.13431048 -0.67748153 0.02629411
0.13316417 -0.66827607 0.02629411
0.17258692 -0.76532903 0.02629411
0.18311131 -0.79532838 0.03423488
0.1819551 -0.78738761 0.03183663
0.17936897 -0.77944684 0.02629411
0.1766274 -0.77150607 0.02629411
0.15660298 -0.74768376 0.02629411
0.16363657 -0.75562453 0.02629411
0.15077174 -0.73864159 0.02629411
0.14767158 -0.73180223 0.02629411
0.26930344 -0.7672894 0.02629411
0.26695096 -0.7635653 0.02629411
0.26426363 -0.75562453 0.02629411
0.26049006 -0.74768376 0.02629411
0.25855744 -0.73974299 0.02629411
0.25763369 -0.73180223 0.02629411
0.25695884 -0.71592069 0.02629411
0.25608408 -0.70797992 0.02629411
0.25219774 -0.69209838 0.02629411
0.24668407 -0.67621684 0.02629411
0.24546343 -0.66839284 0.02629411
0.13218367 -0.6603353 0.02629411
0.13026822 -0.64445376 0.02629411
0.12935519 -0.63651299 0.02629411
0.12652063 -0.62012684 0.02629411
0.1232264 -0.61269069 0.02629411
0.12032402 -0.60474992 0.02629411
0.11842895 -0.59903014 0.02629411
0.11338615 -0.58092767 0.02629411
0.11112964 -0.5729869 0.02629411
0.10893762 -0.56504613 0.02629411
0.10602534 -0.55313498 0.02629411
0.10254741 -0.53729814 0.02629411
0.23754036 -0.64560765 0.02629411
0.23541737 -0.63651299 0.02629411
0.24271941 -0.6603353 0.02629411
0.23965538 -0.65239453 0.02629411
0.2340529 -0.62857223 0.02629411
0.23146629 -0.62063146 0.02629411
0.23046613 -0.61196588 0.0302645
0.2295996 -0.60432768 0.03423488
0.22797823 -0.59680915 0.03423488
0.22384048 -0.58092767 0.02629411
0.22222638 -0.5729869 0.02629411
0.22181416 -0.56504613 0.02629411
0.22178119 -0.55630073 0.02629411
0.2205056 -0.54916459 0.02629411
0.21799088 -0.53328305 0.02629411
0.28532058 -0.78730005 0.02629411
0.27791452 -0.77944684 0.02629411
0.27300382 -0.77150607 0.02629411
0.10002112 -0.5213719 0.02629411
0.0967682 -0.49754959 0.02629411
0.09460664 -0.48356205 0.02629411
0.09154201 -0.4697569 0.02629411
0.08972347 -0.46181613 0.02629411
0.0883193 -0.45387542 0.02629411
0.08599675 -0.43005311 0.02629411
0.08611047 -0.42211235 0.02629411
0.08621728 -0.41417158 0.02629411
0.21696627 -0.52534229 0.02629411
0.2155925 -0.50151998 0.02629411
0.2151581 -0.49357921 0.02629411
0.21477842 -0.48563844 0.02629411
0.21589851 -0.47769767 0.03423488
0.21275622 -0.4697569 0.02834713
0.21279848 -0.46181613 0.02818513
0.21334112 -0.45189297 0.02629411
0.21457469 -0.44593465 0.02629411
0.21538568 -0.43799388 0.02629411
0.21503103 -0.43005311 0.02629411
0.21360797 -0.42253509 0.02629411
0.21081471 -0.41417158 0.02629411
0.0787251 -0.35905612 0.02629411
0.0762229 -0.35064542 0.02629411
0.08582437 -0.40623081 0.02629411
0.0854876 -0.39829004 0.02629411
0.08428609 -0.39034927 0.02629411
0.08323228 -0.3824085 0.02629411
0.0818429 -0.37446773 0.02629411
0.07350683 -0.34270465 0.02629411
0.07145631 -0.33476388 0.02629411
0.20577729 -0.40159398 0.02629411
0.20479083 -0.39829004 0.02629411
0.20353353 -0.39034927 0.02629411
0.20341277 -0.3824085 0.02629411
0.20374048 -0.37446773 0.02629411
0.2149514 -0.33476388 0.02629411
0.21534979 -0.32682312 0.02629411
0.21371806 -0.31888235 0.02243912
0.21317363 -0.31094158 0.02629411
0.21140385 -0.30300081 0.02629411
0.20705795 -0.28711927 0.02629411
0.20317477 -0.27520818 0.02629411
0.19725984 -0.25697759 0.02629411
0.19373405 -0.24741548 0.02629411
0.18989575 -0.23921809 0.02429634
0.18564844 -0.22756356 0.02629411
0.17437238 -0.19908327 0.02629411
0.17137301 -0.1918301 0.02629411
0.18180674 -0.21605587 0.02629411
0.16393328 -0.16800779 0.02629411
0.13479449 -0.09577993 0.03232469
0.13174152 -0.03301477 0.03423488
-0.09225065 0.12580061 0.02629411
-0.08803099 0.13891125 0.02629411
-0.08511806 0.1496228 0.02629411
-0.08009022 0.17582488 0.02629411
-0.07950899 0.29438496 0.02629411
-0.08056635 0.30049741 0.03423488
-0.08581239 0.32431972 0.02629411
-0.07670009 0.28461587 0.02629411
-0.08751118 0.33226049 0.02629411
-0.11070341 0.38784587 0.03423488
-0.11126256 0.39578664 0.02629411
-0.10879582 0.40372741 0.02629411
-0.09223375 0.60849649 0.02629411
-0.08009022 0.61411917 0.02629411
-0.0707179 0.61762881 0.02629411
-0.06420875 0.61987126 0.0302645
-0.04832721 0.62612069 0.02629411
-0.04038644 0.62912077 0.0302645
-0.03188428 0.6337238 0.02629411
-0.0245049 0.63788664 0.02629411
-0.01656413 0.64196563 0.02629411
-0.00576693 0.65783191 0.02629411
-0.00586295 0.66577268 0.0302645
-0.01656413 0.68943536 0.02620739
-0.0245049 0.70117795 0.02629411
-0.02772874 0.70547652 0.02629411
-0.03244472 0.71341729 0.02629799
-0.03924379 0.72319734 0.02629411
-0.04642791 0.7372396 0.02629411
-0.05228508 0.75312114 0.02629411
-0.05626798 0.76542711 0.02629411
-0.06112468 0.77694345 0.02629411
-0.0636757 0.81664717 0.03423488
-0.06276041 0.82458794 0.03423488
-0.05641893 0.84046948 0.02978963
-0.05172431 0.84841025 0.02629411
-0.04532412 0.85635102 0.0302645
-0.03048041 0.87059569 0.02629411
-0.02546783 0.87474534 0.0302645
-0.00068259 0.88811707 0.04231364
0.13431048 -0.02475733 0.03379762
0.13875186 -0.00919247 0.02629411
0.1380657 0.01462984 0.02629411
0.13431048 0.03845215 0.02963161
0.16581932 0.14331138 0.02560925
0.16816944 0.15731722 0.03042996
0.17318451 0.17344511 0.02387404
0.17327458 0.18138587 0.02415699
0.17401433 0.19089508 0.02564985
0.17310786 0.19726741 0.0302645
0.17427081 0.20520818 0.02693713
0.17174053 0.22903049 0.02629411
0.16895616 0.23697126 0.03423488
0.17103004 0.24491203 0.02629411
0.17088568 0.26079357 0.0302645
0.17391908 0.32287472 0.02629411
0.17333168 0.33623087 0.02629411
0.30106652 0.26079357 0.02955091
0.29797959 0.26079357 0.02629411
0.29312575 0.26487756 0.02629411
0.28798306 0.27667511 0.02629411
0.28801125 0.28461587 0.0302645
0.31694806 0.25954795 0.02629411
0.32488883 0.26240432 0.02629411
0.33282959 0.26873434 0.03047955
0.33480036 0.26873434 0.02629411
0.34077036 0.27422595 0.02629411
0.34284484 0.27667511 0.02629411
0.34818578 0.28461587 0.02629411
0.28868866 0.29255664 0.0302645
0.2908414 0.30049741 0.0302645
0.30015683 0.31737226 0.02629411
0.30803269 0.32517511 0.03423488
0.30900729 0.3253727 0.02629411
0.31694806 0.32976198 0.02629411
0.32488883 0.33197242 0.0274424
0.33282959 0.33226049 0.03036034
0.35116363 0.29255664 0.02629411
0.35009408 0.31637895 0.03062046
0.34263718 0.32431972 0.02629411
0.10525584 0.60224652 0.02629411
0.10612321 0.61018729 0.02629411
0.10694754 0.61812806 0.03423488
0.10677803 0.6340096 0.02629411
0.10699689 0.64195037 0.02629411
0.10746703 0.65584671 0.0302645
0.11494642 0.70547652 0.0302645
0.11582124 0.72135806 0.02629411
0.11569405 0.72929883 0.02629411
0.11856794 0.75312114 0.02629411
0.11836797 0.76106191 0.02670902
0.11842895 0.76900268 0.02324271
0.12086773 0.78488421 0.03423488
0.11842895 0.79282498 0.02590871
0.11654031 0.80076575 0.02629411
0.10850108 0.83252871 0.02629411
0.10462308 0.84046948 0.02629411
0.04696202 0.88664436 0.03423488
0.04068303 0.88850671 0.03423488
0.0787251 0.87154186 0.02629411
0.07078433 0.87635446 0.0302645
0.03108048 0.8900941 0.0302645
0.09460664 0.86033404 0.03423488
0.08966869 0.86429179 0.0302645
0.00472021 -0.21565241 0.02629411
0.00977409 -0.22359318 0.02629411
-0.00068259 -0.20771164 0.02843571
-0.00479573 -0.19977087 0.02629411
-0.00862336 -0.1918301 0.02737832
-0.01656413 -0.17390007 0.03423488
-0.01905668 -0.16800779 0.03423488
-0.02205008 -0.16006702 0.02629411
-0.01130772 -0.18388933 0.02629411
-0.01251137 -0.18388933 0.03423488
-0.04770395 -0.10323429 0.02629411
-0.05153853 -0.09654093 0.02629411
-0.02574271 -0.15212625 0.02629411
-0.0308097 -0.14418548 0.02629411
-0.03471822 -0.13624471 0.02629411
-0.0377087 -0.12830395 0.02629411
-0.04038644 -0.12047142 0.02629411
-0.04348719 -0.11242247 0.02629411
0.22965407 -0.92238063 0.02664119
0.22165883 -0.91779089 0.02629411
0.21371806 -0.91330516 0.02629411
-0.08210915 -0.03301477 0.02629411
-0.08553267 -0.02507401 0.02629411
-0.08813256 -0.01742887 0.02804667
-0.09211227 -0.00522208 0.02629411
-0.09569153 0.0077734 0.02629411
-0.09972602 0.02257061 0.02629411
-0.10158193 0.03051138 0.02629411
-0.10282063 0.03845215 0.02629411
-0.10338408 0.04639292 0.02629411
-0.10347122 0.05433369 0.02629411
-0.10265994 0.06624484 0.02629411
-0.10158849 0.07815599 0.02629411
-0.09580418 0.10701126 0.03423488
-0.0942027 0.11785984 0.02629411
-0.06349331 0.78488421 0.02629411
-0.06493163 0.80076575 0.02629411
0.17243636 0.21298414 0.0302645
0.29312575 -0.79532838 0.02269542
0.3566519 -0.83503217 0.02192223
0.13431048 -0.66430569 0.02303666
0.08666587 -0.41417158 0.0225234
0.01519895 -0.23146421 0.02629411
-0.06420875 -0.07107574 0.02629411
-0.07472187 -0.04889631 0.02629411
0.06638837 -0.31888235 0.02629411
0.06284356 -0.31093836 0.02629411
0.05847538 -0.30300081 0.02629411
0.04958403 -0.28711927 0.02629411
0.04696202 -0.28259742 0.02629411
0.03999293 -0.27123779 0.02629411
0.03108048 -0.25666314 0.02629411
0.02001572 -0.23947471 0.02629411
0.14225125 -0.11697769 0.02629411
0.14737344 -0.12830395 0.02629411
-0.07773155 0.18932664 0.02629411
-0.07518572 0.20520818 0.02629411
-0.07292312 0.22108972 0.02629411
-0.09913015 0.36402357 0.02629411
-0.09242767 0.34814203 0.02629411
-0.07146168 0.23697126 0.02629411
-0.0716337 0.2528528 0.02629411
-0.07371515 0.26873434 0.02629411
-0.06420875 0.79282498 0.01502955
0.38047421 -0.96392572 0.03423488
0.39347935 -0.95414364 0.03284615
0.39881635 -0.95017332 0.03820527
0.39317763 -0.93826216 0.0302645
0.39379114 -0.9303214 0.03224969
0.39550471 -0.92548776 0.0302645
0.20638442 -0.36255658 0.0302645
0.20974767 -0.354801 0.03015023
-0.29052055 0.27171212 0.03406405
-0.28555757 0.28096819 0.0295555
-0.28059459 0.27667511 0.03079683
-0.27654792 0.27369732 0.03213973
-0.26552746 0.28064549 0.03095104
-0.26021555 0.28516403 0.03044099
-0.30627736 0.28356414 0.03551821
-0.30703494 0.29652703 0.02975565
-0.30793492 0.30049741 0.02975875
-0.30900079 0.30843818 0.03224969
-0.30547708 0.31439376 0.0302645
-0.30012444 0.32593536 0.0302645
-0.30044651 0.28267545 0.03275105
-0.25478709 0.2894603 0.0302645
-0.2508167 0.29057145 0.03103393
-0.24684632 0.29416406 0.0302645
-0.23870704 0.30031282 0.02999896
-0.29241234 0.34316294 0.0302645
-0.28391178 0.36103728 0.03027499
-0.27445937 0.37643102 0.0302645
-0.26616646 0.39084966 0.03217566
-0.25718385 0.4076978 0.03423488
-0.25313418 0.41214478 0.03304124
-0.24893683 0.41960895 0.03423488
-0.24569476 0.42357934 0.03423488
-0.24029744 0.4315201 0.03423488
-0.22411389 0.31692623 0.03026526
-0.21303533 0.33043832 0.03021252
-0.20477982 0.34034774 0.0302645
-0.16324578 0.38565717 0.03177316
-0.15653278 0.39124778 0.03200978
-0.13899601 0.40326256 0.03423488
-0.23462507 0.43904638 0.03423488
-0.22933114 0.44505744 0.03363794
-0.2248587 0.45137203 0.03423488
-0.21124664 0.46725357 0.03276181
-0.20722702 0.47314736 0.03236783
-0.11979407 0.41936183 0.03399628
-0.11582369 0.42691612 0.02962518
-0.1118533 0.42297447 0.03271851
-0.10810766 0.41563857 0.03263935
-0.10946694 0.41960895 0.03224969
-0.2034649 0.48097679 0.03330919
-0.20088625 0.48710537 0.03423488
-0.19301009 0.50100172 0.03423488
-0.1560657 0.56651306 0.0302645
-0.1548323 0.56928128 0.03423488
-0.1470508 0.57781291 0.03423488
-0.14111105 0.58283263 0.03423488
-0.11979407 0.59799039 0.03423488
0.14914849 0.09403753 0.03324229
0.151409 0.09800792 0.03223163
0.16142106 0.13374138 0.0302645
0.16930178 0.27201578 0.03622007
0.16917205 0.37097174 0.03993705
0.17004395 0.38159132 0.04217565
0.17517731 0.38371032 0.03522748
0.18663281 0.40174222 0.0302645
0.18560368 0.4057126 0.03311697
0.18689755 0.41365337 0.03202739
0.18411779 0.4223585 0.03360835
0.15336545 0.48110396 0.04358613
0.13653506 0.5523091 0.03396235
0.11152452 0.57035273 0.0302645
0.10751158 0.5709514 0.0302645
0.10409784 0.57445383 0.0302645
0.1037612 0.57842422 0.0302645
0.10626554 0.58636498 0.02980995
0.10643473 0.59232056 0.03008568
0.11445856 0.57121336 0.0302645
0.11809278 0.57514513 0.0302645
0.1194067 0.57842422 0.0302645
0.12239933 0.58153498 0.02978235
0.12636971 0.57587603 0.03183335
0.37253344 -0.96458113 0.03423488
-0.2766242 0.28163809 0.02922925
-0.26967603 0.28660107 0.02857625
-0.24089074 0.3024826 0.02743351
0.10254741 0.57445383 0.02922761
0.11842895 0.5823946 0.02827466
0.38409722 -0.96208441 0.03423488
0.38883492 -0.96116385 0.03586215
-0.28655016 0.26792181 0.03492826
0.39437056 -0.95792044 0.03790393
0.39760864 -0.94584155 0.03622007
-0.28257978 0.26873434 0.03421164
0.3945539 -0.93429178 0.03423488
-0.27166122 0.27289581 0.03319147
-0.26645415 0.27127926 0.03554076
-0.26019815 0.27697438 0.03423265
-0.25388422 0.2794091 0.03601363
0.20873904 -0.36652696 0.03423488
0.21445787 -0.35064542 0.03423488
-0.31036907 0.29058743 0.03517804
-0.31096908 0.29652703 0.03356135
-0.31438874 0.29851222 0.03818911
-0.31260163 0.3044678 0.03622007
-0.30432583 0.32305217 0.03423488
-0.24483395 0.29064953 0.03415141
-0.23856349 0.29622623 0.03364873
-0.29646163 0.34124532 0.03423488
-0.29142034 0.35211241 0.03423488
-0.28549068 0.36301191 0.03423488
-0.27693039 0.37593472 0.03423488
-0.23262295 0.3021366 0.03363156
-0.21208904 0.32672742 0.0341984
-0.20104581 0.33927363 0.03617857
-0.21956918 0.3170349 0.03423488
-0.18804862 0.3553282 0.03604183
-0.1793848 0.36497041 0.03608255
-0.16833764 0.37698879 0.0363387
-0.12773484 0.41151333 0.03423488
-0.10872698 0.41166818 0.03820527
-0.21686098 0.46088934 0.03423488
-0.2097258 0.47122395 0.03423488
-0.15017915 0.57445383 0.03423488
-0.19228923 0.50695729 0.04217565
-0.18600923 0.51489806 0.03423488
-0.15949792 0.56135046 0.03423488
0.15364802 0.11886345 0.03770897
0.15723716 0.12866563 0.03622007
0.12817821 0.05731148 0.04009156
0.12859613 0.06425965 0.04118305
0.16994327 0.28163809 0.03622007
0.17093557 0.31588265 0.03622007
0.13906685 0.08507648 0.04029347
0.18321443 0.39975703 0.03423488
0.17699462 0.42556453 0.04098418
0.1696443 0.44343126 0.04173136
0.16251769 0.46738017 0.03868625
0.1104641 0.57047397 0.03423488
0.1176188 0.57048345 0.03423488
0.13006693 0.56595129 0.03423488
0.10665292 0.57465273 0.03423488
0.10435474 0.57842422 0.03423488
0.1047945 0.5823946 0.03423488
0.1051898 0.58636498 0.03423488
0.10656798 0.59430575 0.03423488
0.12239933 0.57445383 0.03321147
0.14527005 0.5307796 0.03668058
0.13927346 0.53872037 0.03944841
0.16847029 0.36451986 0.04019046
0.1829994 -0.89678068 0.03423488
0.17862695 -0.88910183 0.03423488
0.17647493 -0.88267678 0.03423488
0.17493916 -0.87473601 0.03423488
0.17450094 -0.86282486 0.03423488
0.17535222 -0.85488409 0.03423488
0.17700469 -0.84694332 0.03423488
0.17926401 -0.82907659 0.03423488
0.1819551 -0.81769097 0.03423488
0.18365228 -0.80525434 0.03423488
0.1281613 0.0503633 0.04093374
0.16264656 0.1486302 0.03820527
0.168054 0.33374938 0.04019046
0.1677694 0.34814203 0.04019046
-0.25677228 0.28263068 0.0326004
-0.00140822 -0.20771164 0.03423488
0.00492239 -0.21565241 0.03423488
0.00959861 -0.22359318 0.03423488
-0.00780645 -0.19820207 0.03423488
-0.01044881 -0.1918301 0.03423488
-0.02276433 -0.16006702 0.03423488
-0.04832721 -0.10073441 0.03423488
-0.02686405 -0.15212625 0.03423488
-0.03223252 -0.14386639 0.03423488
-0.03596711 -0.13624471 0.03423488
-0.04082686 -0.12036318 0.03423488
-0.04350567 -0.11242247 0.03423488
0.22707582 -0.92238063 0.03423488
0.26327419 -0.93739295 0.03423488
0.24949116 -0.93173012 0.03435177
0.19783652 -0.90874898 0.03423488
0.18989575 -0.90405166 0.03423488
0.20577729 -0.91267979 0.03423488
0.21371806 -0.91612387 0.03423488
0.31694806 -0.95405817 0.03423488
0.33282959 -0.95779133 0.03423488
0.28121459 -0.94538158 0.03423488
0.29312575 -0.9500314 0.03423488
0.30106652 -0.95174479 0.03423488
0.34871113 -0.96138185 0.03423488
0.35453713 -0.96246845 0.03423488
0.36459267 -0.96404231 0.03423488
0.40249014 -0.92238063 0.03423488
0.41223729 -0.91657239 0.03423488
0.41460454 -0.91443986 0.03423488
0.42017806 -0.90651312 0.03425485
0.42212296 -0.89855832 0.03423488
0.42062449 -0.89061755 0.03506178
0.40927875 -0.87473601 0.03423488
0.41645062 -0.89061755 0.04217565
0.41663945 -0.88267678 0.03423488
0.4005996 -0.86679524 0.03423488
0.39635575 -0.86331308 0.03423488
0.17401433 -0.76422831 0.03546798
0.18142581 -0.77944684 0.03423488
0.17846859 -0.77150607 0.03423488
0.15741301 -0.74852502 0.03423488
0.16527826 -0.75633299 0.03423488
0.15130174 -0.73974299 0.03423488
0.14763558 -0.73180223 0.03423488
0.26048756 -0.74768376 0.03423488
0.25940406 -0.73974299 0.03423488
0.25875175 -0.73180223 0.03423488
0.14484847 -0.72386146 0.03423488
0.14333308 -0.71592069 0.03423488
0.25832009 -0.71592069 0.03423488
0.25738919 -0.70797992 0.03423488
0.25567222 -0.70003915 0.03423488
0.25329494 -0.69246888 0.03423488
0.24741888 -0.67621684 0.03423488
0.24594259 -0.66827607 0.04217565
0.23273218 -0.62063146 0.03423488
0.22576272 -0.58489802 0.03423488
0.22353971 -0.5729869 0.03423488
0.22314191 -0.56504613 0.03423488
0.21601951 -0.46578652 0.03423488
0.21669984 -0.45387542 0.03423488
0.21705329 -0.44593465 0.03423488
0.21689892 -0.43799388 0.03423488
0.21371806 -0.42359799 0.03423488
0.209499 -0.41417158 0.03423488
0.2056793 -0.40623081 0.03423488
0.20385277 -0.39829004 0.03423488
0.20434141 -0.39034927 0.03423488
0.20577729 -0.38265392 0.03410548
0.20577729 -0.37446773 0.03214395
0.21651554 -0.34270465 0.03423488
0.21694982 -0.33476388 0.03423488
0.21623075 -0.32682312 0.03423488
0.21441483 -0.31888235 0.03423488
0.21334577 -0.31094158 0.03423488
0.21090114 -0.30300081 0.03423488
0.20933473 -0.29506004 0.03423488
0.20603347 -0.28606543 0.03423488
0.20448101 -0.27917856 0.03423488
0.20146614 -0.27123779 0.03820527
0.13406599 -0.08860016 0.04217565
0.12835431 -0.07271862 0.03423488
0.12679791 -0.06477785 0.03423488
0.12653506 -0.05683708 0.03423488
0.12753344 -0.04889631 0.03423488
0.12926292 -0.04095554 0.03423488
-0.08059376 -0.03301477 0.03648776
-0.08582538 -0.02110362 0.03423488
-0.09208012 -0.0012517 0.03423488
-0.09375006 0.00668907 0.03423488
-0.09572226 0.01551205 0.03423488
-0.10058147 0.03051138 0.03423488
-0.10180795 0.03845215 0.03423488
-0.10267365 0.05433369 0.03423488
-0.10164326 0.07021523 0.03423488
-0.10141993 0.07815599 0.03423488
-0.09846443 0.09403753 0.03423488
-0.09324521 0.11785984 0.03423488
-0.09119886 0.12580061 0.03423488
-0.08784103 0.13339427 0.03323561
-0.08368927 0.14168203 0.03423488
-0.08065438 0.15756357 0.03568256
-0.08221644 0.31240857 0.03423488
-0.08403856 0.32431972 0.03423488
-0.08603597 0.33226049 0.03423488
-0.10677838 0.3799051 0.03423488
-0.11165023 0.39578664 0.03423488
-0.10890466 0.40372741 0.03423488
-0.18129295 0.52283883 0.03423488
-0.17242968 0.53872037 0.03423488
-0.16743869 0.5468452 0.03361964
-0.163167 0.55460191 0.03423488
-0.10709876 0.60391062 0.03423488
-0.09597176 0.61018729 0.03761709
-0.09072816 0.61119705 0.03423488
-0.08803099 0.61357236 0.04217565
-0.07289115 0.61835623 0.04217565
-0.05626798 0.62232709 0.03820527
-0.04832721 0.62510574 0.03820527
-0.03244567 0.63079762 0.04217565
-0.01607552 0.64158607 0.03423488
-0.00836709 0.64948791 0.03423488
-0.00563884 0.65783191 0.03423488
-0.01656413 0.68810713 0.03820527
-0.02379403 0.6985206 0.03423488
-0.00865674 0.67364591 0.03903946
-0.01236469 0.68165421 0.03423488
-0.03395 0.71143895 0.03423488
-0.04054359 0.72109783 0.03423488
-0.0447306 0.72929883 0.03423488
-0.04785904 0.7386964 0.03423488
-0.05004436 0.74518037 0.03423488
-0.05421795 0.75772801 0.03423488
-0.06146622 0.77694345 0.03423488
-0.06424734 0.79249597 0.04217565
-0.06313723 0.78488421 0.04217565
-0.05985302 0.83252871 0.04217565
-0.04631647 0.85431287 0.04416084
-0.04038644 0.86110914 0.03820527
-0.03244567 0.86887074 0.03423488
0.01519895 0.89030635 0.03820527
0.13510489 -0.01713324 0.03741848
0.1354855 -0.00992078 0.03820527
0.13409644 0.00668907 0.04152489
0.16873229 0.16550434 0.03423488
0.17004776 0.17344511 0.03423488
0.17134464 0.18932664 0.03423488
0.1697396 0.22108972 0.03423488
0.16895962 0.22903049 0.03423488
0.16954505 0.2528528 0.03423488
0.30106652 0.26305211 0.03423488
0.29361111 0.26909986 0.03372476
0.35399532 0.30049741 0.03423488
0.3536042 0.30843818 0.03423488
0.29035127 0.27667511 0.03423488
0.34871113 0.32431972 0.03828466
0.30900729 0.26182973 0.03423488
0.31694806 0.26287639 0.03423488
0.34077036 0.33226049 0.03861701
0.32488883 0.2656908 0.03423488
0.3316685 0.26940185 0.03423488
0.34111387 0.27667511 0.03569889
0.34863722 0.28472167 0.03423488
0.10709512 0.60224652 0.03423488
0.29580861 0.30843818 0.03820527
0.10722697 0.61018729 0.03423488
0.29998934 0.31637895 0.03423488
0.10653365 0.62606883 0.03423488
0.10447192 0.6340096 0.05011642
0.10542428 0.64195037 0.04217565
0.31808561 0.3317765 0.03423488
0.32488883 0.33381152 0.03423488
0.10796922 0.66974306 0.04217565
0.35271442 0.29255664 0.03423488
0.11149588 0.68827671 0.03820527
0.11638355 0.72929883 0.03423488
0.11614656 0.7372396 0.03423488
0.1132462 0.69753575 0.03423488
0.11833835 0.74518037 0.0351342
0.11955464 0.75312114 0.03423488
0.11608148 0.71341729 0.03423488
0.12207973 0.76106191 0.04217565
0.12267017 0.76900268 0.04217565
0.12261593 0.77694345 0.04217565
0.09794521 0.85635102 0.03423488
0.11940312 0.79282498 0.03423488
0.11754978 0.80076575 0.03423488
0.11435091 0.81664717 0.03423488
0.11200631 0.82458794 0.03423488
0.10604179 0.84046948 0.03423488
0.10248959 0.84841025 0.03423488
0.06284356 0.88007849 0.03602731
0.02313972 0.89034879 0.03423488
0.08666587 0.86704236 0.03820527
0.1819551 -0.80326915 0.02860272
0.14225125 -0.71592069 0.032511
0.18450487 -0.89855832 0.04217565
0.39859822 -0.94025676 0.03978217
0.39591324 -0.93429178 0.03820527
0.17937946 -0.89061755 0.03820527
0.39635575 -0.93092501 0.03820527
-0.3024317 0.27374899 0.03820527
0.17602813 -0.8787064 0.03820527
0.17523831 -0.86083966 0.03820527
0.17623496 -0.85488409 0.03820527
0.17773026 -0.85049209 0.03820527
0.17932081 -0.84694332 0.03820527
0.17904615 -0.84297293 0.03820527
0.18195403 -0.8270914 0.03820527
0.18528682 -0.81319511 0.03820527
0.18596774 -0.80526966 0.03820641
0.39946674 -0.95406596 0.04120903
-0.26066159 0.27086736 0.03828499
-0.24864826 0.28173849 0.03820527
-0.31475046 0.29057145 0.04019046
-0.3119272 0.31042337 0.03820527
-0.30388993 0.33276141 0.04083891
-0.24265474 0.28836757 0.03820527
-0.2968626 0.34603399 0.03820527
-0.29195642 0.3560828 0.03820527
-0.28921711 0.36402357 0.04217565
-0.28096157 0.37593472 0.04217565
-0.27609849 0.3799051 0.03820527
-0.26712917 0.39445621 0.03909981
-0.26213229 0.40174222 0.03820527
-0.23065345 0.29985499 0.03785908
-0.22390794 0.30733864 0.03820527
-0.21099203 0.32399708 0.03820527
-0.19092743 0.34898633 0.03997743
-0.15748812 0.38590558 0.03825429
-0.14540632 0.39460707 0.03925829
-0.13567561 0.40238214 0.03820527
-0.1278751 0.40295443 0.04429413
-0.11582369 0.41804004 0.03820527
-0.1118533 0.41563857 0.0402503
-0.1099804 0.41563857 0.03820527
0.15006647 0.11068311 0.04012081
0.16403341 0.15756357 0.04019046
0.16890472 0.31042337 0.04217565
0.17532426 0.39406332 0.04118305
0.17906681 0.40567249 0.0412816
0.17632942 0.41166818 0.04496814
0.17915589 0.4153524 0.04134454
0.11048818 0.56877732 0.03820527
0.1070607 0.57048345 0.03987989
0.11445856 0.56709123 0.03820527
0.11842895 0.56465209 0.04030049
0.12636971 0.56651306 0.03710914
0.12273207 0.56849825 0.03694564
0.12666219 0.55887091 0.04053718
0.14321044 0.51539436 0.0434164
-0.29841319 0.26561916 0.03971405
-0.28635886 0.25884205 0.03927451
-0.28456497 0.25505677 0.04138952
-0.2786094 0.26301694 0.0371933
-0.2766242 0.2596125 0.03973386
0.17994493 -0.88863236 0.04217565
0.39864016 -0.93429178 0.04217565
0.39934075 -0.9303214 0.04217565
0.17804244 -0.88238166 0.04184884
-0.30839749 0.26876853 0.04448971
0.17668784 -0.87175822 0.04217565
0.17606056 -0.86282486 0.04217565
0.18015718 -0.85488409 0.04614604
-0.29449093 0.25682318 0.04218912
0.17997754 -0.84694332 0.04217565
-0.29052055 0.25384539 0.04266319
0.18169776 -0.84143277 0.04217565
-0.28456497 0.24937373 0.04514414
0.18342698 -0.83304697 0.04217565
-0.27205301 0.25919046 0.04184172
0.18558919 -0.82627085 0.04217565
-0.26165944 0.26609653 0.04196429
0.18954453 -0.81319511 0.04289031
0.18989575 -0.80723953 0.04255283
0.1878106 -0.79929876 0.04217565
-0.25205522 0.27394702 0.04175329
0.39670384 -0.96208441 0.04566097
0.40149671 -0.95811221 0.04813123
-0.31861576 0.29033992 0.04614604
-0.31871426 0.29652703 0.04614604
-0.31723858 0.3002063 0.04422763
0.40256318 -0.94620293 0.04515344
-0.31449284 0.31051761 0.04406507
-0.31128684 0.31737155 0.04284036
-0.23585519 0.28969957 0.04424526
-0.30729257 0.32837273 0.04413819
-0.29759623 0.34913462 0.04217565
-0.27066863 0.39539927 0.05073345
-0.29245761 0.36005318 0.04416084
-0.26567644 0.39975703 0.04217565
-0.28483896 0.37196434 0.04652467
-0.22324538 0.30075926 0.04614604
-0.27386484 0.38586068 0.04217565
-0.21492027 0.31362784 0.04388183
-0.19659141 0.33921954 0.04397112
-0.21111292 0.31836414 0.04514003
-0.18729061 0.34770238 0.04936212
-0.20306951 0.3281467 0.04614604
-0.17380824 0.3662149 0.04297571
-0.16448408 0.37196434 0.05011642
-0.12397471 0.40578724 0.04442212
-0.11979407 0.41204691 0.04217565
-0.1550397 0.38387549 0.04539496
-0.11582369 0.41485977 0.04217565
-0.1118533 0.41215873 0.04238647
-0.13567561 0.39746785 0.04614604
0.12523091 0.04242253 0.05011642
0.12857857 0.07021523 0.04458445
0.14159322 0.09602273 0.04495192
0.16470999 0.27568251 0.04737188
0.16616036 0.28461587 0.0442604
0.1458683 0.10991907 0.04614604
0.16891408 0.29652703 0.04217565
0.16804901 0.3024826 0.04416084
0.15444109 0.13280076 0.04416084
0.1578089 0.14086086 0.04416084
0.15916088 0.1491265 0.04713863
0.16673343 0.26575655 0.04348429
0.16746121 0.3887642 0.04912382
0.17107867 0.39777055 0.04815501
0.1682688 0.42754972 0.05011642
0.16983694 0.42289364 0.05011642
0.11445856 0.56081757 0.04508695
0.13366124 0.49536735 0.06096303
0.13725258 0.52879441 0.04605055
0.1077559 0.56651306 0.04381555
0.12115657 0.54570848 0.0521147
0.12239933 0.56012756 0.04255748
-0.00748312 -0.19977087 0.04217565
-0.00987262 -0.19580048 0.04217565
-0.0130533 -0.18701789 0.04217565
-0.03504932 -0.13624471 0.04217565
0.19783652 -0.90873384 0.04217565
0.20705044 -0.91374236 0.04217565
0.2018069 -0.90999597 0.04217565
0.18989575 -0.90329129 0.04217565
0.18586308 -0.7893728 0.04217565
0.1860218 -0.78143203 0.04416084
0.18723488 -0.77547646 0.04614604
0.18424681 -0.77167341 0.04349482
-0.04879156 0.74439353 0.04217565
-0.04579911 0.72929883 0.04416084
-0.0465284 0.73326921 0.04217565
-0.04588449 0.73326921 0.05011642
-0.04682332 0.74120998 0.04614604
0.16679662 0.17866236 0.04411768
0.16690665 0.18734145 0.04614604
0.16832751 0.19726741 0.04416084
0.1045171 0.57445383 0.04217565
0.10471773 0.57842422 0.04217565
0.10616291 0.58336341 0.04217565
0.10833681 0.58636498 0.04614604
0.00527656 -0.21565241 0.04217565
0.01254281 -0.22756356 0.04284096
-0.01643655 -0.17554232 0.04217565
-0.02075931 -0.16403741 0.04217565
-0.04832721 -0.09732586 0.04217565
-0.02618903 -0.15212625 0.04217565
-0.04214537 -0.11242247 0.04217565
-0.04500759 -0.1044817 0.04217565
0.22649536 -0.92305218 0.04217565
0.23754036 -0.92827028 0.04217565
0.26136267 -0.93671131 0.04217565
0.24411148 -0.93082026 0.04217565
0.21371806 -0.91741049 0.04217565
0.31694806 -0.95664716 0.04217565
0.32488883 -0.95925099 0.04217565
0.33411336 -0.96177813 0.04217565
0.28406143 -0.94665757 0.04217565
0.29312575 -0.95013571 0.04217565
0.30106652 -0.95240271 0.04217565
0.34077036 -0.96258044 0.04085875
0.34871113 -0.9638015 0.04217565
0.36459267 -0.96667778 0.04217565
0.37253344 -0.96754217 0.04217565
0.38047421 -0.96747655 0.04217565
0.38841498 -0.96548617 0.04217565
0.40429652 -0.9236691 0.04217565
0.40429652 -0.92238063 0.03768277
0.41223729 -0.91846526 0.04217565
0.4156034 -0.91443986 0.04217565
0.41858685 -0.90649909 0.04217565
0.41931188 -0.89855832 0.04217565
0.41223729 -0.88232934 0.0427506
0.40709376 -0.87473601 0.04217565
0.40429652 -0.87023526 0.04217565
0.40035522 -0.86679524 0.04217565
0.39635575 -0.86449188 0.04217565
0.1819551 -0.76605007 0.04465443
0.17752373 -0.7635653 0.04217565
0.15813279 -0.74768376 0.04497194
0.17401433 -0.760144 0.04217565
0.16637763 -0.75543295 0.0409258
0.15320921 -0.73974299 0.05011642
0.15019202 -0.73508883 0.04217565
0.26065481 -0.74768376 0.04217565
0.25918388 -0.73974299 0.04217565
0.25866687 -0.73180223 0.04217565
0.14480352 -0.71592069 0.04217565
0.2584517 -0.71592069 0.04217565
0.25768244 -0.70797992 0.04217565
0.2559427 -0.70003915 0.04217565
0.25345689 -0.69209838 0.04360819
0.24766016 -0.67621684 0.04217565
0.23306727 -0.62063146 0.04217565
0.23134708 -0.6087203 0.04217565
0.2295996 -0.59642613 0.04217565
0.22684014 -0.58092767 0.04217565
0.22522938 -0.5729869 0.04217565
0.22393692 -0.56504613 0.04217565
0.22165883 -0.55294049 0.04217565
0.21762395 -0.47769767 0.04217565
0.21821129 -0.4697569 0.04217565
0.21890438 -0.46181613 0.04217565
0.21885824 -0.45387542 0.04217565
0.2188071 -0.44593465 0.04217565
0.21764958 -0.43799388 0.04217565
0.21648109 -0.43005311 0.04217565
0.21371806 -0.42272788 0.04217565
0.20868945 -0.41417158 0.04217565
0.2056607 -0.40676191 0.04217565
0.20547056 -0.39829004 0.04322541
0.20577729 -0.39034927 0.03868783
0.20975399 -0.3824085 0.04217565
0.21350271 -0.36566997 0.04217565
0.21566391 -0.35858619 0.04217565
0.2173183 -0.35064542 0.04217565
0.21796799 -0.34270465 0.04217565
0.21793973 -0.33476388 0.04217565
0.21555603 -0.31888235 0.04217565
0.21316671 -0.30562171 0.04217565
0.21019506 -0.29506004 0.04217565
0.20642418 -0.28564733 0.04217565
0.20398653 -0.27917856 0.04217565
0.13596892 -0.09654093 0.04217565
0.13011086 -0.07271862 0.04217565
0.12757909 -0.06477785 0.04217565
0.12652159 -0.05683708 0.04217565
0.12640488 -0.04889631 0.04217565
0.12761712 -0.04095554 0.04217565
0.12929428 -0.03301477 0.04614604
-0.07959971 -0.0316447 0.04217565
-0.08460689 -0.01713324 0.04217565
-0.08964664 -0.0012517 0.04217565
-0.09071517 0.00668907 0.04217565
-0.09552664 0.02257061 0.04087406
-0.0981341 0.03051138 0.04217565
-0.10004097 0.03845215 0.04217565
-0.10092181 0.04639292 0.04217565
-0.10098183 0.05433369 0.04217565
-0.10039592 0.06227446 0.04217565
-0.09887838 0.07815599 0.05011642
-0.09843576 0.09006715 0.04217565
-0.09580004 0.1019783 0.04217565
-0.09352088 0.10991907 0.04217565
-0.09061682 0.11785984 0.04217565
-0.08803099 0.12331307 0.04217565
-0.08284289 0.13374138 0.04217565
-0.08022928 0.14168203 0.04217565
-0.07896447 0.1496228 0.04217565
-0.25764531 0.41166818 0.04217565
-0.24751639 0.42754972 0.04700047
-0.23721698 0.43946087 0.04217565
-0.08009022 0.30049741 0.03698492
-0.07944113 0.30843818 0.04217565
-0.08009022 0.31821692 0.04165256
-0.07746345 0.32431972 0.05011642
-0.08334881 0.33226049 0.04217565
-0.22814244 0.45137203 0.04217565
-0.22124046 0.4593128 0.04217565
-0.2150833 0.4675703 0.04217565
-0.11021042 0.38784587 0.04217565
-0.11151576 0.39578664 0.04217565
-0.11073846 0.40372741 0.04217565
-0.20714253 0.47976124 0.04217565
-0.20130754 0.49107575 0.04217565
-0.19650722 0.49901652 0.04217565
-0.18816423 0.51489806 0.04217565
-0.18321171 0.52268189 0.04217565
-0.17537946 0.5341655 0.04217565
-0.16743869 0.54533935 0.04217565
-0.16118014 0.55460191 0.04217565
-0.15748799 0.56254268 0.04217565
-0.15261948 0.57207847 0.04217565
-0.14799684 0.57842422 0.04217565
-0.14178234 0.58462387 0.04217565
-0.13567561 0.58990002 0.04217565
-0.12773484 0.59484506 0.04217565
-0.11979407 0.59895909 0.04217565
-0.10391253 0.60650563 0.04217565
-0.09597176 0.61122608 0.04217565
-0.06420875 0.62011969 0.04217565
-0.04219913 0.62668884 0.04217565
-0.02477685 0.63415399 0.04323864
-0.01656413 0.63927352 0.04217565
-0.0131427 0.64195037 0.04217565
-0.00862336 0.64672589 0.04217565
-0.00646377 0.64989114 0.04217565
-0.00446326 0.65783191 0.04217565
-0.006001 0.66577268 0.04217565
-0.02776732 0.70148733 0.04217565
-0.0135591 0.68165421 0.05011642
-0.03764945 0.71341729 0.04217565
-0.04274064 0.72135806 0.04217565
-0.05250239 0.75312114 0.04217565
